ply
format ascii 1.0
comment created by gply, a Houdini tool.
comment converted from .[b]geo
comment for more information about Houdini, try:
comment www.sidefx.com
element vertex 1486
property float x
property float y
property float z
element face 0
property list uchar int vertex_indices
end_header
5.30000019 0.100000001 2.29999995 
5.30000019 0.100000001 2.35000014 
5.3499999 0.100000001 2.29999995 
5.3499999 0.100000001 2.35000014 
5.4000001 0.0500000007 1.60000002 
5.4000001 0.0500000007 1.64999998 
5.45000029 0.0500000007 1.60000002 
5.45000029 0.0500000007 1.64999998 
5.4000001 0.0500000007 1.70000005 
5.4000001 0.0500000007 1.75 
5.45000029 0.0500000007 1.70000005 
5.45000029 0.0500000007 1.75 
5.4000001 0.0500000007 1.80000007 
5.4000001 0.0500000007 1.85000002 
5.45000029 0.0500000007 1.80000007 
5.45000029 0.0500000007 1.85000002 
5.4000001 0.0500000007 1.89999998 
5.4000001 0.0500000007 1.95000005 
5.45000029 0.0500000007 1.89999998 
5.45000029 0.0500000007 1.95000005 
5.4000001 0.0500000007 2 
5.4000001 0.0500000007 2.04999995 
5.45000029 0.0500000007 2 
5.45000029 0.0500000007 2.04999995 
5.4000001 0.0500000007 2.10000014 
5.4000001 0.0500000007 2.1500001 
5.45000029 0.0500000007 2.10000014 
5.45000029 0.0500000007 2.1500001 
5.4000001 0.0500000007 2.20000005 
5.4000001 0.0500000007 2.25 
5.45000029 0.0500000007 2.20000005 
5.45000029 0.0500000007 2.25 
5.4000001 0.0500000007 2.29999995 
5.4000001 0.0500000007 2.35000014 
5.45000029 0.0500000007 2.29999995 
5.45000029 0.0500000007 2.35000014 
5.4000001 0.100000001 1.60000002 
5.4000001 0.100000001 1.64999998 
5.45000029 0.100000001 1.60000002 
5.45000029 0.100000001 1.64999998 
5.4000001 0.100000001 1.70000005 
5.4000001 0.100000001 1.75 
5.45000029 0.100000001 1.70000005 
5.45000029 0.100000001 1.75 
5.4000001 0.100000001 1.80000007 
5.4000001 0.100000001 1.85000002 
5.45000029 0.100000001 1.80000007 
5.45000029 0.100000001 1.85000002 
5.4000001 0.100000001 1.89999998 
5.4000001 0.100000001 1.95000005 
5.45000029 0.100000001 1.89999998 
5.45000029 0.100000001 1.95000005 
5.4000001 0.100000001 2 
5.4000001 0.100000001 2.04999995 
5.45000029 0.100000001 2 
5.45000029 0.100000001 2.04999995 
5.4000001 0.100000001 2.10000014 
5.4000001 0.100000001 2.1500001 
5.45000029 0.100000001 2.10000014 
5.45000029 0.100000001 2.1500001 
5.4000001 0.100000001 2.20000005 
5.4000001 0.100000001 2.25 
5.45000029 0.100000001 2.20000005 
5.45000029 0.100000001 2.25 
5.4000001 0.100000001 2.29999995 
5.4000001 0.100000001 2.35000014 
5.45000029 0.100000001 2.29999995 
5.45000029 0.100000001 2.35000014 
5.5 0.0500000007 1.60000002 
5.5 0.0500000007 1.64999998 
5.55000019 0.0500000007 1.60000002 
5.55000019 0.0500000007 1.64999998 
5.5 0.0500000007 1.70000005 
5.5 0.0500000007 1.75 
5.55000019 0.0500000007 1.70000005 
5.55000019 0.0500000007 1.75 
5.5 0.0500000007 1.80000007 
5.5 0.0500000007 1.85000002 
5.55000019 0.0500000007 1.80000007 
5.55000019 0.0500000007 1.85000002 
5.5 0.0500000007 1.89999998 
5.5 0.0500000007 1.95000005 
5.55000019 0.0500000007 1.89999998 
5.55000019 0.0500000007 1.95000005 
5.5 0.0500000007 2 
5.5 0.0500000007 2.04999995 
5.55000019 0.0500000007 2 
5.55000019 0.0500000007 2.04999995 
5.5 0.0500000007 2.10000014 
5.5 0.0500000007 2.1500001 
5.55000019 0.0500000007 2.10000014 
5.55000019 0.0500000007 2.1500001 
5.5 0.0500000007 2.20000005 
5.5 0.0500000007 2.25 
5.55000019 0.0500000007 2.20000005 
5.55000019 0.0500000007 2.25 
5.5 0.0500000007 2.29999995 
5.5 0.0500000007 2.35000014 
5.55000019 0.0500000007 2.29999995 
5.55000019 0.0500000007 2.35000014 
5.5 0.100000001 1.60000002 
5.5 0.100000001 1.64999998 
5.55000019 0.100000001 1.60000002 
5.55000019 0.100000001 1.64999998 
5.5 0.100000001 1.70000005 
5.5 0.100000001 1.75 
5.55000019 0.100000001 1.70000005 
5.55000019 0.100000001 1.75 
5.5 0.100000001 1.80000007 
5.5 0.100000001 1.85000002 
5.55000019 0.100000001 1.80000007 
5.55000019 0.100000001 1.85000002 
5.5 0.100000001 1.89999998 
5.5 0.100000001 1.95000005 
5.55000019 0.100000001 1.89999998 
5.55000019 0.100000001 1.95000005 
5.5 0.100000001 2 
5.5 0.100000001 2.04999995 
5.55000019 0.100000001 2 
5.55000019 0.100000001 2.04999995 
5.5 0.100000001 2.10000014 
5.5 0.100000001 2.1500001 
5.55000019 0.100000001 2.10000014 
5.55000019 0.100000001 2.1500001 
5.5 0.100000001 2.20000005 
5.5 0.100000001 2.25 
5.55000019 0.100000001 2.20000005 
5.55000019 0.100000001 2.25 
5.5 0.100000001 2.29999995 
5.5 0.100000001 2.35000014 
5.55000019 0.100000001 2.29999995 
5.55000019 0.100000001 2.35000014 
4.80000019 0.0500000007 2.4000001 
4.80000019 0.0500000007 2.45000005 
4.8499999 0.0500000007 2.4000001 
4.8499999 0.0500000007 2.45000005 
4.80000019 0.0500000007 2.5 
4.80000019 0.0500000007 2.54999995 
4.8499999 0.0500000007 2.5 
4.8499999 0.0500000007 2.54999995 
4.80000019 0.0500000007 2.60000014 
4.80000019 0.0500000007 2.6500001 
4.8499999 0.0500000007 2.60000014 
4.8499999 0.0500000007 2.6500001 
4.80000019 0.0500000007 2.70000005 
4.80000019 0.0500000007 2.75 
4.8499999 0.0500000007 2.70000005 
4.8499999 0.0500000007 2.75 
4.80000019 0.0500000007 2.79999995 
4.80000019 0.0500000007 2.85000014 
4.8499999 0.0500000007 2.79999995 
4.8499999 0.0500000007 2.85000014 
4.80000019 0.0500000007 2.9000001 
4.80000019 0.0500000007 2.95000005 
4.8499999 0.0500000007 2.9000001 
4.8499999 0.0500000007 2.95000005 
4.80000019 0.0500000007 3 
4.80000019 0.0500000007 3.04999995 
4.8499999 0.0500000007 3 
4.8499999 0.0500000007 3.04999995 
4.80000019 0.0500000007 3.10000014 
4.80000019 0.0500000007 3.1500001 
4.8499999 0.0500000007 3.10000014 
4.8499999 0.0500000007 3.1500001 
4.80000019 0.100000001 2.4000001 
4.80000019 0.100000001 2.45000005 
4.8499999 0.100000001 2.4000001 
4.8499999 0.100000001 2.45000005 
4.80000019 0.100000001 2.5 
4.80000019 0.100000001 2.54999995 
4.8499999 0.100000001 2.5 
4.8499999 0.100000001 2.54999995 
4.80000019 0.100000001 2.60000014 
4.80000019 0.100000001 2.6500001 
4.8499999 0.100000001 2.60000014 
4.8499999 0.100000001 2.6500001 
4.80000019 0.100000001 2.70000005 
4.80000019 0.100000001 2.75 
4.8499999 0.100000001 2.70000005 
4.8499999 0.100000001 2.75 
4.80000019 0.100000001 2.79999995 
4.80000019 0.100000001 2.85000014 
4.8499999 0.100000001 2.79999995 
4.8499999 0.100000001 2.85000014 
4.80000019 0.100000001 2.9000001 
4.80000019 0.100000001 2.95000005 
4.8499999 0.100000001 2.9000001 
4.8499999 0.100000001 2.95000005 
4.80000019 0.100000001 3 
4.80000019 0.100000001 3.04999995 
4.8499999 0.100000001 3 
4.8499999 0.100000001 3.04999995 
4.80000019 0.100000001 3.10000014 
4.80000019 0.100000001 3.1500001 
4.8499999 0.100000001 3.10000014 
4.8499999 0.100000001 3.1500001 
4.9000001 0.0500000007 2.4000001 
4.9000001 0.0500000007 2.45000005 
4.95000029 0.0500000007 2.4000001 
4.95000029 0.0500000007 2.45000005 
4.9000001 0.0500000007 2.5 
4.9000001 0.0500000007 2.54999995 
4.95000029 0.0500000007 2.5 
4.95000029 0.0500000007 2.54999995 
4.9000001 0.0500000007 2.60000014 
4.9000001 0.0500000007 2.6500001 
4.95000029 0.0500000007 2.60000014 
4.95000029 0.0500000007 2.6500001 
4.9000001 0.0500000007 2.70000005 
4.9000001 0.0500000007 2.75 
4.95000029 0.0500000007 2.70000005 
4.95000029 0.0500000007 2.75 
4.9000001 0.0500000007 2.79999995 
4.9000001 0.0500000007 2.85000014 
4.95000029 0.0500000007 2.79999995 
4.95000029 0.0500000007 2.85000014 
4.9000001 0.0500000007 2.9000001 
4.9000001 0.0500000007 2.95000005 
4.95000029 0.0500000007 2.9000001 
4.95000029 0.0500000007 2.95000005 
4.9000001 0.0500000007 3 
4.9000001 0.0500000007 3.04999995 
4.95000029 0.0500000007 3 
4.95000029 0.0500000007 3.04999995 
4.9000001 0.0500000007 3.10000014 
4.9000001 0.0500000007 3.1500001 
4.95000029 0.0500000007 3.10000014 
4.95000029 0.0500000007 3.1500001 
4.9000001 0.100000001 2.4000001 
4.9000001 0.100000001 2.45000005 
4.95000029 0.100000001 2.4000001 
4.95000029 0.100000001 2.45000005 
4.9000001 0.100000001 2.5 
4.9000001 0.100000001 2.54999995 
4.95000029 0.100000001 2.5 
4.95000029 0.100000001 2.54999995 
4.9000001 0.100000001 2.60000014 
4.9000001 0.100000001 2.6500001 
4.95000029 0.100000001 2.60000014 
4.95000029 0.100000001 2.6500001 
4.9000001 0.100000001 2.70000005 
4.9000001 0.100000001 2.75 
4.95000029 0.100000001 2.70000005 
4.95000029 0.100000001 2.75 
4.9000001 0.100000001 2.79999995 
4.9000001 0.100000001 2.85000014 
4.95000029 0.100000001 2.79999995 
4.95000029 0.100000001 2.85000014 
4.9000001 0.100000001 2.9000001 
4.9000001 0.100000001 2.95000005 
4.95000029 0.100000001 2.9000001 
4.95000029 0.100000001 2.95000005 
4.9000001 0.100000001 3 
4.9000001 0.100000001 3.04999995 
4.95000029 0.100000001 3 
4.95000029 0.100000001 3.04999995 
4.9000001 0.100000001 3.10000014 
4.9000001 0.100000001 3.1500001 
4.95000029 0.100000001 3.10000014 
4.95000029 0.100000001 3.1500001 
5 0.0500000007 2.4000001 
5 0.0500000007 2.45000005 
5.05000019 0.0500000007 2.4000001 
5.05000019 0.0500000007 2.45000005 
5 0.0500000007 2.5 
5 0.0500000007 2.54999995 
5.05000019 0.0500000007 2.5 
5.05000019 0.0500000007 2.54999995 
5 0.0500000007 2.60000014 
5 0.0500000007 2.6500001 
5.05000019 0.0500000007 2.60000014 
5.05000019 0.0500000007 2.6500001 
5 0.0500000007 2.70000005 
5 0.0500000007 2.75 
5.05000019 0.0500000007 2.70000005 
5.05000019 0.0500000007 2.75 
5 0.0500000007 2.79999995 
5 0.0500000007 2.85000014 
5.05000019 0.0500000007 2.79999995 
5.05000019 0.0500000007 2.85000014 
5 0.0500000007 2.9000001 
5 0.0500000007 2.95000005 
5.05000019 0.0500000007 2.9000001 
5.05000019 0.0500000007 2.95000005 
5 0.0500000007 3 
5 0.0500000007 3.04999995 
5.05000019 0.0500000007 3 
5.05000019 0.0500000007 3.04999995 
5 0.0500000007 3.10000014 
5 0.0500000007 3.1500001 
5.05000019 0.0500000007 3.10000014 
5.05000019 0.0500000007 3.1500001 
5 0.100000001 2.4000001 
5 0.100000001 2.45000005 
5.05000019 0.100000001 2.4000001 
5.05000019 0.100000001 2.45000005 
5 0.100000001 2.5 
5 0.100000001 2.54999995 
5.05000019 0.100000001 2.5 
5.05000019 0.100000001 2.54999995 
5 0.100000001 2.60000014 
5 0.100000001 2.6500001 
5.05000019 0.100000001 2.60000014 
5.05000019 0.100000001 2.6500001 
5 0.100000001 2.70000005 
5 0.100000001 2.75 
5.05000019 0.100000001 2.70000005 
5.05000019 0.100000001 2.75 
5 0.100000001 2.79999995 
5 0.100000001 2.85000014 
5.05000019 0.100000001 2.79999995 
5.05000019 0.100000001 2.85000014 
5 0.100000001 2.9000001 
5 0.100000001 2.95000005 
5.05000019 0.100000001 2.9000001 
5.05000019 0.100000001 2.95000005 
5 0.100000001 3 
5 0.100000001 3.04999995 
5.05000019 0.100000001 3 
5.05000019 0.100000001 3.04999995 
5 0.100000001 3.10000014 
5 0.100000001 3.1500001 
5.05000019 0.100000001 3.10000014 
5.05000019 0.100000001 3.1500001 
5.0999999 0.0500000007 2.4000001 
5.0999999 0.0500000007 2.45000005 
5.1500001 0.0500000007 2.4000001 
5.1500001 0.0500000007 2.45000005 
5.0999999 0.0500000007 2.5 
5.0999999 0.0500000007 2.54999995 
5.1500001 0.0500000007 2.5 
5.1500001 0.0500000007 2.54999995 
5.0999999 0.0500000007 2.60000014 
5.0999999 0.0500000007 2.6500001 
5.1500001 0.0500000007 2.60000014 
5.1500001 0.0500000007 2.6500001 
5.0999999 0.0500000007 2.70000005 
5.0999999 0.0500000007 2.75 
5.1500001 0.0500000007 2.70000005 
5.1500001 0.0500000007 2.75 
5.0999999 0.0500000007 2.79999995 
5.0999999 0.0500000007 2.85000014 
5.1500001 0.0500000007 2.79999995 
5.1500001 0.0500000007 2.85000014 
5.0999999 0.0500000007 2.9000001 
5.0999999 0.0500000007 2.95000005 
5.1500001 0.0500000007 2.9000001 
5.1500001 0.0500000007 2.95000005 
5.0999999 0.0500000007 3 
5.0999999 0.0500000007 3.04999995 
5.1500001 0.0500000007 3 
5.1500001 0.0500000007 3.04999995 
5.0999999 0.0500000007 3.10000014 
5.0999999 0.0500000007 3.1500001 
5.1500001 0.0500000007 3.10000014 
5.1500001 0.0500000007 3.1500001 
5.0999999 0.100000001 2.4000001 
5.0999999 0.100000001 2.45000005 
5.1500001 0.100000001 2.4000001 
5.1500001 0.100000001 2.45000005 
5.0999999 0.100000001 2.5 
5.0999999 0.100000001 2.54999995 
5.1500001 0.100000001 2.5 
5.1500001 0.100000001 2.54999995 
5.0999999 0.100000001 2.60000014 
5.0999999 0.100000001 2.6500001 
5.1500001 0.100000001 2.60000014 
5.1500001 0.100000001 2.6500001 
5.0999999 0.100000001 2.70000005 
5.0999999 0.100000001 2.75 
5.1500001 0.100000001 2.70000005 
5.1500001 0.100000001 2.75 
5.0999999 0.100000001 2.79999995 
5.0999999 0.100000001 2.85000014 
5.1500001 0.100000001 2.79999995 
5.1500001 0.100000001 2.85000014 
5.0999999 0.100000001 2.9000001 
5.0999999 0.100000001 2.95000005 
5.1500001 0.100000001 2.9000001 
5.1500001 0.100000001 2.95000005 
5.0999999 0.100000001 3 
5.0999999 0.100000001 3.04999995 
5.1500001 0.100000001 3 
5.1500001 0.100000001 3.04999995 
5.0999999 0.100000001 3.10000014 
5.0999999 0.100000001 3.1500001 
5.1500001 0.100000001 3.10000014 
5.1500001 0.100000001 3.1500001 
5.20000029 0.0500000007 2.4000001 
5.20000029 0.0500000007 2.45000005 
5.25 0.0500000007 2.4000001 
5.25 0.0500000007 2.45000005 
5.20000029 0.0500000007 2.5 
5.20000029 0.0500000007 2.54999995 
5.25 0.0500000007 2.5 
5.25 0.0500000007 2.54999995 
5.20000029 0.0500000007 2.60000014 
5.20000029 0.0500000007 2.6500001 
5.25 0.0500000007 2.60000014 
5.25 0.0500000007 2.6500001 
5.20000029 0.0500000007 2.70000005 
5.20000029 0.0500000007 2.75 
5.25 0.0500000007 2.70000005 
5.25 0.0500000007 2.75 
5.20000029 0.0500000007 2.79999995 
5.20000029 0.0500000007 2.85000014 
5.25 0.0500000007 2.79999995 
5.25 0.0500000007 2.85000014 
5.20000029 0.0500000007 2.9000001 
5.20000029 0.0500000007 2.95000005 
5.25 0.0500000007 2.9000001 
5.25 0.0500000007 2.95000005 
5.20000029 0.0500000007 3 
5.20000029 0.0500000007 3.04999995 
5.25 0.0500000007 3 
5.25 0.0500000007 3.04999995 
5.20000029 0.0500000007 3.10000014 
5.20000029 0.0500000007 3.1500001 
5.25 0.0500000007 3.10000014 
5.25 0.0500000007 3.1500001 
5.20000029 0.100000001 2.4000001 
5.20000029 0.100000001 2.45000005 
5.25 0.100000001 2.4000001 
5.25 0.100000001 2.45000005 
5.20000029 0.100000001 2.5 
5.20000029 0.100000001 2.54999995 
5.25 0.100000001 2.5 
5.25 0.100000001 2.54999995 
5.20000029 0.100000001 2.60000014 
5.20000029 0.100000001 2.6500001 
5.25 0.100000001 2.60000014 
5.25 0.100000001 2.6500001 
5.20000029 0.100000001 2.70000005 
5.20000029 0.100000001 2.75 
5.25 0.100000001 2.70000005 
5.25 0.100000001 2.75 
5.20000029 0.100000001 2.79999995 
5.20000029 0.100000001 2.85000014 
5.25 0.100000001 2.79999995 
5.25 0.100000001 2.85000014 
5.20000029 0.100000001 2.9000001 
5.20000029 0.100000001 2.95000005 
5.25 0.100000001 2.9000001 
5.25 0.100000001 2.95000005 
5.20000029 0.100000001 3 
5.20000029 0.100000001 3.04999995 
5.25 0.100000001 3 
5.25 0.100000001 3.04999995 
5.20000029 0.100000001 3.10000014 
5.20000029 0.100000001 3.1500001 
5.25 0.100000001 3.10000014 
5.25 0.100000001 3.1500001 
5.30000019 0.0500000007 2.4000001 
5.30000019 0.0500000007 2.45000005 
5.3499999 0.0500000007 2.4000001 
5.3499999 0.0500000007 2.45000005 
5.30000019 0.0500000007 2.5 
5.30000019 0.0500000007 2.54999995 
5.3499999 0.0500000007 2.5 
5.3499999 0.0500000007 2.54999995 
5.30000019 0.0500000007 2.60000014 
5.30000019 0.0500000007 2.6500001 
5.3499999 0.0500000007 2.60000014 
5.3499999 0.0500000007 2.6500001 
5.30000019 0.0500000007 2.70000005 
5.30000019 0.0500000007 2.75 
5.3499999 0.0500000007 2.70000005 
5.3499999 0.0500000007 2.75 
5.30000019 0.0500000007 2.79999995 
5.30000019 0.0500000007 2.85000014 
5.3499999 0.0500000007 2.79999995 
5.3499999 0.0500000007 2.85000014 
5.30000019 0.0500000007 2.9000001 
5.30000019 0.0500000007 2.95000005 
5.3499999 0.0500000007 2.9000001 
5.3499999 0.0500000007 2.95000005 
5.30000019 0.0500000007 3 
5.30000019 0.0500000007 3.04999995 
5.3499999 0.0500000007 3 
5.3499999 0.0500000007 3.04999995 
5.30000019 0.0500000007 3.10000014 
5.30000019 0.0500000007 3.1500001 
5.3499999 0.0500000007 3.10000014 
5.3499999 0.0500000007 3.1500001 
5.30000019 0.100000001 2.4000001 
5.30000019 0.100000001 2.45000005 
5.3499999 0.100000001 2.4000001 
5.3499999 0.100000001 2.45000005 
5.30000019 0.100000001 2.5 
5.30000019 0.100000001 2.54999995 
5.3499999 0.100000001 2.5 
5.3499999 0.100000001 2.54999995 
5.30000019 0.100000001 2.60000014 
5.30000019 0.100000001 2.6500001 
5.3499999 0.100000001 2.60000014 
5.3499999 0.100000001 2.6500001 
5.30000019 0.100000001 2.70000005 
5.30000019 0.100000001 2.75 
5.3499999 0.100000001 2.70000005 
5.3499999 0.100000001 2.75 
5.30000019 0.100000001 2.79999995 
5.30000019 0.100000001 2.85000014 
5.3499999 0.100000001 2.79999995 
5.3499999 0.100000001 2.85000014 
5.30000019 0.100000001 2.9000001 
5.30000019 0.100000001 2.95000005 
5.3499999 0.100000001 2.9000001 
5.3499999 0.100000001 2.95000005 
5.30000019 0.100000001 3 
5.30000019 0.100000001 3.04999995 
5.3499999 0.100000001 3 
5.3499999 0.100000001 3.04999995 
5.30000019 0.100000001 3.10000014 
5.30000019 0.100000001 3.1500001 
5.3499999 0.100000001 3.10000014 
5.3499999 0.100000001 3.1500001 
5.4000001 0.0500000007 2.4000001 
5.4000001 0.0500000007 2.45000005 
5.45000029 0.0500000007 2.4000001 
5.45000029 0.0500000007 2.45000005 
5.4000001 0.0500000007 2.5 
5.4000001 0.0500000007 2.54999995 
5.45000029 0.0500000007 2.5 
5.45000029 0.0500000007 2.54999995 
5.4000001 0.0500000007 2.60000014 
5.4000001 0.0500000007 2.6500001 
5.45000029 0.0500000007 2.60000014 
5.45000029 0.0500000007 2.6500001 
5.4000001 0.0500000007 2.70000005 
5.4000001 0.0500000007 2.75 
5.45000029 0.0500000007 2.70000005 
5.45000029 0.0500000007 2.75 
5.4000001 0.0500000007 2.79999995 
5.4000001 0.0500000007 2.85000014 
5.45000029 0.0500000007 2.79999995 
5.45000029 0.0500000007 2.85000014 
5.4000001 0.0500000007 2.9000001 
5.4000001 0.0500000007 2.95000005 
5.45000029 0.0500000007 2.9000001 
5.45000029 0.0500000007 2.95000005 
5.4000001 0.0500000007 3 
5.4000001 0.0500000007 3.04999995 
5.45000029 0.0500000007 3 
5.45000029 0.0500000007 3.04999995 
5.4000001 0.0500000007 3.10000014 
5.4000001 0.0500000007 3.1500001 
5.45000029 0.0500000007 3.10000014 
5.45000029 0.0500000007 3.1500001 
5.4000001 0.100000001 2.4000001 
5.4000001 0.100000001 2.45000005 
5.45000029 0.100000001 2.4000001 
5.45000029 0.100000001 2.45000005 
5.4000001 0.100000001 2.5 
5.4000001 0.100000001 2.54999995 
5.45000029 0.100000001 2.5 
5.45000029 0.100000001 2.54999995 
5.4000001 0.100000001 2.60000014 
5.4000001 0.100000001 2.6500001 
5.45000029 0.100000001 2.60000014 
5.45000029 0.100000001 2.6500001 
5.4000001 0.100000001 2.70000005 
5.4000001 0.100000001 2.75 
5.45000029 0.100000001 2.70000005 
5.45000029 0.100000001 2.75 
5.4000001 0.100000001 2.79999995 
5.4000001 0.100000001 2.85000014 
5.45000029 0.100000001 2.79999995 
5.45000029 0.100000001 2.85000014 
5.4000001 0.100000001 2.9000001 
5.4000001 0.100000001 2.95000005 
5.45000029 0.100000001 2.9000001 
5.45000029 0.100000001 2.95000005 
5.4000001 0.100000001 3 
5.4000001 0.100000001 3.04999995 
5.45000029 0.100000001 3 
5.45000029 0.100000001 3.04999995 
5.4000001 0.100000001 3.10000014 
5.4000001 0.100000001 3.1500001 
5.45000029 0.100000001 3.10000014 
5.45000029 0.100000001 3.1500001 
5.5 0.0500000007 2.4000001 
5.5 0.0500000007 2.45000005 
5.55000019 0.0500000007 2.4000001 
5.55000019 0.0500000007 2.45000005 
5.5 0.0500000007 2.5 
5.5 0.0500000007 2.54999995 
5.55000019 0.0500000007 2.5 
5.55000019 0.0500000007 2.54999995 
5.5 0.0500000007 2.60000014 
5.5 0.0500000007 2.6500001 
5.55000019 0.0500000007 2.60000014 
5.55000019 0.0500000007 2.6500001 
5.5 0.0500000007 2.70000005 
5.5 0.0500000007 2.75 
5.55000019 0.0500000007 2.70000005 
5.55000019 0.0500000007 2.75 
5.5 0.0500000007 2.79999995 
5.5 0.0500000007 2.85000014 
5.55000019 0.0500000007 2.79999995 
5.55000019 0.0500000007 2.85000014 
5.5 0.0500000007 2.9000001 
5.5 0.0500000007 2.95000005 
5.55000019 0.0500000007 2.9000001 
5.55000019 0.0500000007 2.95000005 
5.5 0.0500000007 3 
5.5 0.0500000007 3.04999995 
5.55000019 0.0500000007 3 
5.55000019 0.0500000007 3.04999995 
5.5 0.0500000007 3.10000014 
5.5 0.0500000007 3.1500001 
5.55000019 0.0500000007 3.10000014 
5.55000019 0.0500000007 3.1500001 
5.5 0.100000001 2.4000001 
5.5 0.100000001 2.45000005 
5.55000019 0.100000001 2.4000001 
5.55000019 0.100000001 2.45000005 
5.5 0.100000001 2.5 
5.5 0.100000001 2.54999995 
5.55000019 0.100000001 2.5 
5.55000019 0.100000001 2.54999995 
5.5 0.100000001 2.60000014 
5.5 0.100000001 2.6500001 
5.55000019 0.100000001 2.60000014 
5.55000019 0.100000001 2.6500001 
5.5 0.100000001 2.70000005 
5.5 0.100000001 2.75 
5.55000019 0.100000001 2.70000005 
5.55000019 0.100000001 2.75 
5.5 0.100000001 2.79999995 
5.5 0.100000001 2.85000014 
5.55000019 0.100000001 2.79999995 
5.55000019 0.100000001 2.85000014 
5.5 0.100000001 2.9000001 
5.5 0.100000001 2.95000005 
5.55000019 0.100000001 2.9000001 
5.55000019 0.100000001 2.95000005 
5.5 0.100000001 3 
5.5 0.100000001 3.04999995 
5.55000019 0.100000001 3 
5.55000019 0.100000001 3.04999995 
5.5 0.100000001 3.10000014 
5.5 0.100000001 3.1500001 
5.55000019 0.100000001 3.10000014 
5.55000019 0.100000001 3.1500001 
4.80000019 0.0500000007 3.20000005 
4.80000019 0.0500000007 3.25 
4.8499999 0.0500000007 3.20000005 
4.8499999 0.0500000007 3.25 
4.80000019 0.0500000007 3.29999995 
4.80000019 0.0500000007 3.35000014 
4.8499999 0.0500000007 3.29999995 
4.8499999 0.0500000007 3.35000014 
4.80000019 0.0500000007 3.4000001 
4.80000019 0.0500000007 3.45000005 
4.8499999 0.0500000007 3.4000001 
4.8499999 0.0500000007 3.45000005 
4.80000019 0.0500000007 3.5 
4.80000019 0.0500000007 3.54999995 
4.8499999 0.0500000007 3.5 
4.8499999 0.0500000007 3.54999995 
4.80000019 0.0500000007 3.60000014 
4.80000019 0.0500000007 3.6500001 
4.8499999 0.0500000007 3.60000014 
4.8499999 0.0500000007 3.6500001 
4.80000019 0.0500000007 3.70000005 
4.80000019 0.0500000007 3.75 
4.8499999 0.0500000007 3.70000005 
4.8499999 0.0500000007 3.75 
4.80000019 0.0500000007 3.79999995 
4.80000019 0.0500000007 3.85000014 
4.8499999 0.0500000007 3.79999995 
4.8499999 0.0500000007 3.85000014 
4.80000019 0.0500000007 3.9000001 
4.80000019 0.0500000007 3.95000005 
4.8499999 0.0500000007 3.9000001 
4.8499999 0.0500000007 3.95000005 
4.80000019 0.100000001 3.20000005 
4.80000019 0.100000001 3.25 
4.8499999 0.100000001 3.20000005 
4.8499999 0.100000001 3.25 
4.80000019 0.100000001 3.29999995 
4.80000019 0.100000001 3.35000014 
4.8499999 0.100000001 3.29999995 
4.8499999 0.100000001 3.35000014 
4.80000019 0.100000001 3.4000001 
4.80000019 0.100000001 3.45000005 
4.8499999 0.100000001 3.4000001 
4.8499999 0.100000001 3.45000005 
4.80000019 0.100000001 3.5 
4.80000019 0.100000001 3.54999995 
4.8499999 0.100000001 3.5 
4.8499999 0.100000001 3.54999995 
4.80000019 0.100000001 3.60000014 
4.80000019 0.100000001 3.6500001 
4.8499999 0.100000001 3.60000014 
4.8499999 0.100000001 3.6500001 
4.80000019 0.100000001 3.70000005 
4.80000019 0.100000001 3.75 
4.8499999 0.100000001 3.70000005 
4.8499999 0.100000001 3.75 
4.80000019 0.100000001 3.79999995 
4.80000019 0.100000001 3.85000014 
4.8499999 0.100000001 3.79999995 
4.8499999 0.100000001 3.85000014 
4.80000019 0.100000001 3.9000001 
4.80000019 0.100000001 3.95000005 
4.8499999 0.100000001 3.9000001 
4.8499999 0.100000001 3.95000005 
4.9000001 0.0500000007 3.20000005 
4.9000001 0.0500000007 3.25 
4.95000029 0.0500000007 3.20000005 
4.95000029 0.0500000007 3.25 
4.9000001 0.0500000007 3.29999995 
4.9000001 0.0500000007 3.35000014 
4.95000029 0.0500000007 3.29999995 
4.95000029 0.0500000007 3.35000014 
4.9000001 0.0500000007 3.4000001 
4.9000001 0.0500000007 3.45000005 
4.95000029 0.0500000007 3.4000001 
4.95000029 0.0500000007 3.45000005 
4.9000001 0.0500000007 3.5 
4.9000001 0.0500000007 3.54999995 
4.95000029 0.0500000007 3.5 
4.95000029 0.0500000007 3.54999995 
4.9000001 0.0500000007 3.60000014 
4.9000001 0.0500000007 3.6500001 
4.95000029 0.0500000007 3.60000014 
4.95000029 0.0500000007 3.6500001 
4.9000001 0.0500000007 3.70000005 
4.9000001 0.0500000007 3.75 
4.95000029 0.0500000007 3.70000005 
4.95000029 0.0500000007 3.75 
4.9000001 0.0500000007 3.79999995 
4.9000001 0.0500000007 3.85000014 
4.95000029 0.0500000007 3.79999995 
4.95000029 0.0500000007 3.85000014 
4.9000001 0.0500000007 3.9000001 
4.9000001 0.0500000007 3.95000005 
4.95000029 0.0500000007 3.9000001 
4.95000029 0.0500000007 3.95000005 
4.9000001 0.100000001 3.20000005 
4.9000001 0.100000001 3.25 
4.95000029 0.100000001 3.20000005 
4.95000029 0.100000001 3.25 
4.9000001 0.100000001 3.29999995 
4.9000001 0.100000001 3.35000014 
4.95000029 0.100000001 3.29999995 
4.95000029 0.100000001 3.35000014 
4.9000001 0.100000001 3.4000001 
4.9000001 0.100000001 3.45000005 
4.95000029 0.100000001 3.4000001 
4.95000029 0.100000001 3.45000005 
4.9000001 0.100000001 3.5 
4.9000001 0.100000001 3.54999995 
4.95000029 0.100000001 3.5 
4.95000029 0.100000001 3.54999995 
4.9000001 0.100000001 3.60000014 
4.9000001 0.100000001 3.6500001 
4.95000029 0.100000001 3.60000014 
4.95000029 0.100000001 3.6500001 
4.9000001 0.100000001 3.70000005 
4.9000001 0.100000001 3.75 
4.95000029 0.100000001 3.70000005 
4.95000029 0.100000001 3.75 
4.9000001 0.100000001 3.79999995 
4.9000001 0.100000001 3.85000014 
4.95000029 0.100000001 3.79999995 
4.95000029 0.100000001 3.85000014 
4.9000001 0.100000001 3.9000001 
4.9000001 0.100000001 3.95000005 
4.95000029 0.100000001 3.9000001 
4.95000029 0.100000001 3.95000005 
5 0.0500000007 3.20000005 
5 0.0500000007 3.25 
5.05000019 0.0500000007 3.20000005 
5.05000019 0.0500000007 3.25 
5 0.0500000007 3.29999995 
5 0.0500000007 3.35000014 
5.05000019 0.0500000007 3.29999995 
5.05000019 0.0500000007 3.35000014 
5 0.0500000007 3.4000001 
5 0.0500000007 3.45000005 
5.05000019 0.0500000007 3.4000001 
5.05000019 0.0500000007 3.45000005 
5 0.0500000007 3.5 
5 0.0500000007 3.54999995 
5.05000019 0.0500000007 3.5 
5.05000019 0.0500000007 3.54999995 
5 0.0500000007 3.60000014 
5 0.0500000007 3.6500001 
5.05000019 0.0500000007 3.60000014 
5.05000019 0.0500000007 3.6500001 
5 0.0500000007 3.70000005 
5 0.0500000007 3.75 
5.05000019 0.0500000007 3.70000005 
5.05000019 0.0500000007 3.75 
5 0.0500000007 3.79999995 
5 0.0500000007 3.85000014 
5.05000019 0.0500000007 3.79999995 
5.05000019 0.0500000007 3.85000014 
5 0.0500000007 3.9000001 
5 0.0500000007 3.95000005 
5.05000019 0.0500000007 3.9000001 
5.05000019 0.0500000007 3.95000005 
5 0.100000001 3.20000005 
5 0.100000001 3.25 
5.05000019 0.100000001 3.20000005 
5.05000019 0.100000001 3.25 
5 0.100000001 3.29999995 
5 0.100000001 3.35000014 
5.05000019 0.100000001 3.29999995 
5.05000019 0.100000001 3.35000014 
5 0.100000001 3.4000001 
5 0.100000001 3.45000005 
5.05000019 0.100000001 3.4000001 
5.05000019 0.100000001 3.45000005 
5 0.100000001 3.5 
5 0.100000001 3.54999995 
5.05000019 0.100000001 3.5 
5.05000019 0.100000001 3.54999995 
5 0.100000001 3.60000014 
5 0.100000001 3.6500001 
5.05000019 0.100000001 3.60000014 
5.05000019 0.100000001 3.6500001 
5 0.100000001 3.70000005 
5 0.100000001 3.75 
5.05000019 0.100000001 3.70000005 
5.05000019 0.100000001 3.75 
5 0.100000001 3.79999995 
5 0.100000001 3.85000014 
5.05000019 0.100000001 3.79999995 
5.05000019 0.100000001 3.85000014 
5 0.100000001 3.9000001 
5 0.100000001 3.95000005 
5.05000019 0.100000001 3.9000001 
5.05000019 0.100000001 3.95000005 
5.0999999 0.0500000007 3.20000005 
5.0999999 0.0500000007 3.25 
5.1500001 0.0500000007 3.20000005 
5.1500001 0.0500000007 3.25 
5.0999999 0.0500000007 3.29999995 
5.0999999 0.0500000007 3.35000014 
5.1500001 0.0500000007 3.29999995 
5.1500001 0.0500000007 3.35000014 
5.0999999 0.0500000007 3.4000001 
5.0999999 0.0500000007 3.45000005 
5.1500001 0.0500000007 3.4000001 
5.1500001 0.0500000007 3.45000005 
5.0999999 0.0500000007 3.5 
5.0999999 0.0500000007 3.54999995 
5.1500001 0.0500000007 3.5 
5.1500001 0.0500000007 3.54999995 
5.0999999 0.0500000007 3.60000014 
5.0999999 0.0500000007 3.6500001 
5.1500001 0.0500000007 3.60000014 
5.1500001 0.0500000007 3.6500001 
5.0999999 0.0500000007 3.70000005 
5.0999999 0.0500000007 3.75 
5.1500001 0.0500000007 3.70000005 
5.1500001 0.0500000007 3.75 
5.0999999 0.0500000007 3.79999995 
5.0999999 0.0500000007 3.85000014 
5.1500001 0.0500000007 3.79999995 
5.1500001 0.0500000007 3.85000014 
5.0999999 0.0500000007 3.9000001 
5.0999999 0.0500000007 3.95000005 
5.1500001 0.0500000007 3.9000001 
5.1500001 0.0500000007 3.95000005 
5.0999999 0.100000001 3.20000005 
5.0999999 0.100000001 3.25 
5.1500001 0.100000001 3.20000005 
5.1500001 0.100000001 3.25 
5.0999999 0.100000001 3.29999995 
5.0999999 0.100000001 3.35000014 
5.1500001 0.100000001 3.29999995 
5.1500001 0.100000001 3.35000014 
5.0999999 0.100000001 3.4000001 
5.0999999 0.100000001 3.45000005 
5.1500001 0.100000001 3.4000001 
5.1500001 0.100000001 3.45000005 
5.0999999 0.100000001 3.5 
5.0999999 0.100000001 3.54999995 
5.1500001 0.100000001 3.5 
5.1500001 0.100000001 3.54999995 
5.0999999 0.100000001 3.60000014 
5.0999999 0.100000001 3.6500001 
5.1500001 0.100000001 3.60000014 
5.1500001 0.100000001 3.6500001 
5.0999999 0.100000001 3.70000005 
5.0999999 0.100000001 3.75 
5.1500001 0.100000001 3.70000005 
5.1500001 0.100000001 3.75 
5.0999999 0.100000001 3.79999995 
5.0999999 0.100000001 3.85000014 
5.1500001 0.100000001 3.79999995 
5.1500001 0.100000001 3.85000014 
5.0999999 0.100000001 3.9000001 
5.0999999 0.100000001 3.95000005 
5.1500001 0.100000001 3.9000001 
5.1500001 0.100000001 3.95000005 
5.20000029 0.0500000007 3.20000005 
5.20000029 0.0500000007 3.25 
5.25 0.0500000007 3.20000005 
5.25 0.0500000007 3.25 
5.20000029 0.0500000007 3.29999995 
5.20000029 0.0500000007 3.35000014 
5.25 0.0500000007 3.29999995 
5.25 0.0500000007 3.35000014 
5.20000029 0.0500000007 3.4000001 
5.20000029 0.0500000007 3.45000005 
5.25 0.0500000007 3.4000001 
5.25 0.0500000007 3.45000005 
5.20000029 0.0500000007 3.5 
5.20000029 0.0500000007 3.54999995 
5.25 0.0500000007 3.5 
5.25 0.0500000007 3.54999995 
5.20000029 0.0500000007 3.60000014 
5.20000029 0.0500000007 3.6500001 
5.25 0.0500000007 3.60000014 
5.25 0.0500000007 3.6500001 
5.20000029 0.0500000007 3.70000005 
5.20000029 0.0500000007 3.75 
5.25 0.0500000007 3.70000005 
5.25 0.0500000007 3.75 
5.20000029 0.0500000007 3.79999995 
5.20000029 0.0500000007 3.85000014 
5.25 0.0500000007 3.79999995 
5.25 0.0500000007 3.85000014 
5.20000029 0.0500000007 3.9000001 
5.20000029 0.0500000007 3.95000005 
5.25 0.0500000007 3.9000001 
5.25 0.0500000007 3.95000005 
5.20000029 0.100000001 3.20000005 
5.20000029 0.100000001 3.25 
5.25 0.100000001 3.20000005 
5.25 0.100000001 3.25 
5.20000029 0.100000001 3.29999995 
5.20000029 0.100000001 3.35000014 
5.25 0.100000001 3.29999995 
5.25 0.100000001 3.35000014 
5.20000029 0.100000001 3.4000001 
5.20000029 0.100000001 3.45000005 
5.25 0.100000001 3.4000001 
5.25 0.100000001 3.45000005 
5.20000029 0.100000001 3.5 
5.20000029 0.100000001 3.54999995 
5.25 0.100000001 3.5 
5.25 0.100000001 3.54999995 
5.20000029 0.100000001 3.60000014 
5.20000029 0.100000001 3.6500001 
5.25 0.100000001 3.60000014 
5.25 0.100000001 3.6500001 
5.20000029 0.100000001 3.70000005 
5.20000029 0.100000001 3.75 
5.25 0.100000001 3.70000005 
5.25 0.100000001 3.75 
5.20000029 0.100000001 3.79999995 
5.20000029 0.100000001 3.85000014 
5.25 0.100000001 3.79999995 
5.25 0.100000001 3.85000014 
5.20000029 0.100000001 3.9000001 
5.20000029 0.100000001 3.95000005 
5.25 0.100000001 3.9000001 
5.25 0.100000001 3.95000005 
5.30000019 0.0500000007 3.20000005 
5.30000019 0.0500000007 3.25 
5.3499999 0.0500000007 3.20000005 
5.3499999 0.0500000007 3.25 
5.30000019 0.0500000007 3.29999995 
5.30000019 0.0500000007 3.35000014 
5.3499999 0.0500000007 3.29999995 
5.3499999 0.0500000007 3.35000014 
5.30000019 0.0500000007 3.4000001 
5.30000019 0.0500000007 3.45000005 
5.3499999 0.0500000007 3.4000001 
5.3499999 0.0500000007 3.45000005 
5.30000019 0.0500000007 3.5 
5.30000019 0.0500000007 3.54999995 
5.3499999 0.0500000007 3.5 
5.3499999 0.0500000007 3.54999995 
5.30000019 0.0500000007 3.60000014 
5.30000019 0.0500000007 3.6500001 
5.3499999 0.0500000007 3.60000014 
5.3499999 0.0500000007 3.6500001 
5.30000019 0.0500000007 3.70000005 
5.30000019 0.0500000007 3.75 
5.3499999 0.0500000007 3.70000005 
5.3499999 0.0500000007 3.75 
5.30000019 0.0500000007 3.79999995 
5.30000019 0.0500000007 3.85000014 
5.3499999 0.0500000007 3.79999995 
5.3499999 0.0500000007 3.85000014 
5.30000019 0.0500000007 3.9000001 
5.30000019 0.0500000007 3.95000005 
5.3499999 0.0500000007 3.9000001 
5.3499999 0.0500000007 3.95000005 
5.30000019 0.100000001 3.20000005 
5.30000019 0.100000001 3.25 
5.3499999 0.100000001 3.20000005 
5.3499999 0.100000001 3.25 
5.30000019 0.100000001 3.29999995 
5.30000019 0.100000001 3.35000014 
5.3499999 0.100000001 3.29999995 
5.3499999 0.100000001 3.35000014 
5.30000019 0.100000001 3.4000001 
5.30000019 0.100000001 3.45000005 
5.3499999 0.100000001 3.4000001 
5.3499999 0.100000001 3.45000005 
5.30000019 0.100000001 3.5 
5.30000019 0.100000001 3.54999995 
5.3499999 0.100000001 3.5 
5.3499999 0.100000001 3.54999995 
5.30000019 0.100000001 3.60000014 
5.30000019 0.100000001 3.6500001 
5.3499999 0.100000001 3.60000014 
5.3499999 0.100000001 3.6500001 
5.30000019 0.100000001 3.70000005 
5.30000019 0.100000001 3.75 
5.3499999 0.100000001 3.70000005 
5.3499999 0.100000001 3.75 
5.30000019 0.100000001 3.79999995 
5.30000019 0.100000001 3.85000014 
5.3499999 0.100000001 3.79999995 
5.3499999 0.100000001 3.85000014 
5.30000019 0.100000001 3.9000001 
5.30000019 0.100000001 3.95000005 
5.3499999 0.100000001 3.9000001 
5.3499999 0.100000001 3.95000005 
5.4000001 0.0500000007 3.20000005 
5.4000001 0.0500000007 3.25 
5.45000029 0.0500000007 3.20000005 
5.45000029 0.0500000007 3.25 
5.4000001 0.0500000007 3.29999995 
5.4000001 0.0500000007 3.35000014 
5.45000029 0.0500000007 3.29999995 
5.45000029 0.0500000007 3.35000014 
5.4000001 0.0500000007 3.4000001 
5.4000001 0.0500000007 3.45000005 
5.45000029 0.0500000007 3.4000001 
5.45000029 0.0500000007 3.45000005 
5.4000001 0.0500000007 3.5 
5.4000001 0.0500000007 3.54999995 
5.45000029 0.0500000007 3.5 
5.45000029 0.0500000007 3.54999995 
5.4000001 0.0500000007 3.60000014 
5.4000001 0.0500000007 3.6500001 
5.45000029 0.0500000007 3.60000014 
5.45000029 0.0500000007 3.6500001 
5.4000001 0.0500000007 3.70000005 
5.4000001 0.0500000007 3.75 
5.45000029 0.0500000007 3.70000005 
5.45000029 0.0500000007 3.75 
5.4000001 0.0500000007 3.79999995 
5.4000001 0.0500000007 3.85000014 
5.45000029 0.0500000007 3.79999995 
5.45000029 0.0500000007 3.85000014 
5.4000001 0.0500000007 3.9000001 
5.4000001 0.0500000007 3.95000005 
5.45000029 0.0500000007 3.9000001 
5.45000029 0.0500000007 3.95000005 
5.4000001 0.100000001 3.20000005 
5.4000001 0.100000001 3.25 
5.45000029 0.100000001 3.20000005 
5.45000029 0.100000001 3.25 
5.4000001 0.100000001 3.29999995 
5.4000001 0.100000001 3.35000014 
5.45000029 0.100000001 3.29999995 
5.45000029 0.100000001 3.35000014 
5.4000001 0.100000001 3.4000001 
5.4000001 0.100000001 3.45000005 
5.45000029 0.100000001 3.4000001 
5.45000029 0.100000001 3.45000005 
5.4000001 0.100000001 3.5 
5.4000001 0.100000001 3.54999995 
5.45000029 0.100000001 3.5 
5.45000029 0.100000001 3.54999995 
5.4000001 0.100000001 3.60000014 
5.4000001 0.100000001 3.6500001 
5.45000029 0.100000001 3.60000014 
5.45000029 0.100000001 3.6500001 
5.4000001 0.100000001 3.70000005 
5.4000001 0.100000001 3.75 
5.45000029 0.100000001 3.70000005 
5.45000029 0.100000001 3.75 
5.4000001 0.100000001 3.79999995 
5.4000001 0.100000001 3.85000014 
5.45000029 0.100000001 3.79999995 
5.45000029 0.100000001 3.85000014 
5.4000001 0.100000001 3.9000001 
5.4000001 0.100000001 3.95000005 
5.45000029 0.100000001 3.9000001 
5.45000029 0.100000001 3.95000005 
5.5 0.0500000007 3.20000005 
5.5 0.0500000007 3.25 
5.55000019 0.0500000007 3.20000005 
5.55000019 0.0500000007 3.25 
5.5 0.0500000007 3.29999995 
5.5 0.0500000007 3.35000014 
5.55000019 0.0500000007 3.29999995 
5.55000019 0.0500000007 3.35000014 
5.5 0.0500000007 3.4000001 
5.5 0.0500000007 3.45000005 
5.55000019 0.0500000007 3.4000001 
5.55000019 0.0500000007 3.45000005 
5.5 0.0500000007 3.5 
5.5 0.0500000007 3.54999995 
5.55000019 0.0500000007 3.5 
5.55000019 0.0500000007 3.54999995 
5.5 0.0500000007 3.60000014 
5.5 0.0500000007 3.6500001 
5.55000019 0.0500000007 3.60000014 
5.55000019 0.0500000007 3.6500001 
5.5 0.0500000007 3.70000005 
5.5 0.0500000007 3.75 
5.55000019 0.0500000007 3.70000005 
5.55000019 0.0500000007 3.75 
5.5 0.0500000007 3.79999995 
5.5 0.0500000007 3.85000014 
5.55000019 0.0500000007 3.79999995 
5.55000019 0.0500000007 3.85000014 
5.5 0.0500000007 3.9000001 
5.5 0.0500000007 3.95000005 
5.55000019 0.0500000007 3.9000001 
5.55000019 0.0500000007 3.95000005 
5.5 0.100000001 3.20000005 
5.5 0.100000001 3.25 
5.55000019 0.100000001 3.20000005 
5.55000019 0.100000001 3.25 
5.5 0.100000001 3.29999995 
5.5 0.100000001 3.35000014 
5.55000019 0.100000001 3.29999995 
5.55000019 0.100000001 3.35000014 
5.5 0.100000001 3.4000001 
5.5 0.100000001 3.45000005 
5.55000019 0.100000001 3.4000001 
5.55000019 0.100000001 3.45000005 
5.5 0.100000001 3.5 
5.5 0.100000001 3.54999995 
5.55000019 0.100000001 3.5 
5.55000019 0.100000001 3.54999995 
5.5 0.100000001 3.60000014 
5.5 0.100000001 3.6500001 
5.55000019 0.100000001 3.60000014 
5.55000019 0.100000001 3.6500001 
5.5 0.100000001 3.70000005 
5.5 0.100000001 3.75 
5.55000019 0.100000001 3.70000005 
5.55000019 0.100000001 3.75 
5.5 0.100000001 3.79999995 
5.5 0.100000001 3.85000014 
5.55000019 0.100000001 3.79999995 
5.55000019 0.100000001 3.85000014 
5.5 0.100000001 3.9000001 
5.5 0.100000001 3.95000005 
5.55000019 0.100000001 3.9000001 
5.55000019 0.100000001 3.95000005 
4.80000019 0.0500000007 4 
4.80000019 0.0500000007 4.05000019 
4.8499999 0.0500000007 4 
4.8499999 0.0500000007 4.05000019 
4.80000019 0.0500000007 4.0999999 
4.80000019 0.0500000007 4.1500001 
4.8499999 0.0500000007 4.0999999 
4.8499999 0.0500000007 4.1500001 
4.80000019 0.0500000007 4.20000029 
4.80000019 0.0500000007 4.25 
4.8499999 0.0500000007 4.20000029 
4.8499999 0.0500000007 4.25 
4.80000019 0.0500000007 4.30000019 
4.80000019 0.0500000007 4.3499999 
4.8499999 0.0500000007 4.30000019 
4.8499999 0.0500000007 4.3499999 
4.80000019 0.0500000007 4.4000001 
4.80000019 0.0500000007 4.45000029 
4.8499999 0.0500000007 4.4000001 
4.8499999 0.0500000007 4.45000029 
4.80000019 0.0500000007 4.5 
4.80000019 0.0500000007 4.55000019 
4.8499999 0.0500000007 4.5 
4.8499999 0.0500000007 4.55000019 
4.80000019 0.0500000007 4.5999999 
4.80000019 0.0500000007 4.6500001 
4.8499999 0.0500000007 4.5999999 
4.8499999 0.0500000007 4.6500001 
4.80000019 0.0500000007 4.70000029 
4.80000019 0.0500000007 4.75 
4.8499999 0.0500000007 4.70000029 
4.8499999 0.0500000007 4.75 
4.80000019 0.100000001 4 
4.80000019 0.100000001 4.05000019 
4.8499999 0.100000001 4 
4.8499999 0.100000001 4.05000019 
4.80000019 0.100000001 4.0999999 
4.80000019 0.100000001 4.1500001 
4.8499999 0.100000001 4.0999999 
4.8499999 0.100000001 4.1500001 
4.80000019 0.100000001 4.20000029 
4.80000019 0.100000001 4.25 
4.8499999 0.100000001 4.20000029 
4.8499999 0.100000001 4.25 
4.80000019 0.100000001 4.30000019 
4.80000019 0.100000001 4.3499999 
4.8499999 0.100000001 4.30000019 
4.8499999 0.100000001 4.3499999 
4.80000019 0.100000001 4.4000001 
4.80000019 0.100000001 4.45000029 
4.8499999 0.100000001 4.4000001 
4.8499999 0.100000001 4.45000029 
4.80000019 0.100000001 4.5 
4.80000019 0.100000001 4.55000019 
4.8499999 0.100000001 4.5 
4.8499999 0.100000001 4.55000019 
4.80000019 0.100000001 4.5999999 
4.80000019 0.100000001 4.6500001 
4.8499999 0.100000001 4.5999999 
4.8499999 0.100000001 4.6500001 
4.80000019 0.100000001 4.70000029 
4.80000019 0.100000001 4.75 
4.8499999 0.100000001 4.70000029 
4.8499999 0.100000001 4.75 
4.9000001 0.0500000007 4 
4.9000001 0.0500000007 4.05000019 
4.95000029 0.0500000007 4 
4.95000029 0.0500000007 4.05000019 
4.9000001 0.0500000007 4.0999999 
4.9000001 0.0500000007 4.1500001 
4.95000029 0.0500000007 4.0999999 
4.95000029 0.0500000007 4.1500001 
4.9000001 0.0500000007 4.20000029 
4.9000001 0.0500000007 4.25 
4.95000029 0.0500000007 4.20000029 
4.95000029 0.0500000007 4.25 
4.9000001 0.0500000007 4.30000019 
4.9000001 0.0500000007 4.3499999 
4.95000029 0.0500000007 4.30000019 
4.95000029 0.0500000007 4.3499999 
4.9000001 0.0500000007 4.4000001 
4.9000001 0.0500000007 4.45000029 
4.95000029 0.0500000007 4.4000001 
4.95000029 0.0500000007 4.45000029 
4.9000001 0.0500000007 4.5 
4.9000001 0.0500000007 4.55000019 
4.95000029 0.0500000007 4.5 
4.95000029 0.0500000007 4.55000019 
4.9000001 0.0500000007 4.5999999 
4.9000001 0.0500000007 4.6500001 
4.95000029 0.0500000007 4.5999999 
4.95000029 0.0500000007 4.6500001 
4.9000001 0.0500000007 4.70000029 
4.9000001 0.0500000007 4.75 
4.95000029 0.0500000007 4.70000029 
4.95000029 0.0500000007 4.75 
4.9000001 0.100000001 4 
4.9000001 0.100000001 4.05000019 
4.95000029 0.100000001 4 
4.95000029 0.100000001 4.05000019 
4.9000001 0.100000001 4.0999999 
4.9000001 0.100000001 4.1500001 
4.95000029 0.100000001 4.0999999 
4.95000029 0.100000001 4.1500001 
4.9000001 0.100000001 4.20000029 
4.9000001 0.100000001 4.25 
4.95000029 0.100000001 4.20000029 
4.95000029 0.100000001 4.25 
4.9000001 0.100000001 4.30000019 
4.9000001 0.100000001 4.3499999 
4.95000029 0.100000001 4.30000019 
4.95000029 0.100000001 4.3499999 
4.9000001 0.100000001 4.4000001 
4.9000001 0.100000001 4.45000029 
4.95000029 0.100000001 4.4000001 
4.95000029 0.100000001 4.45000029 
4.9000001 0.100000001 4.5 
4.9000001 0.100000001 4.55000019 
4.95000029 0.100000001 4.5 
4.95000029 0.100000001 4.55000019 
4.9000001 0.100000001 4.5999999 
4.9000001 0.100000001 4.6500001 
4.95000029 0.100000001 4.5999999 
4.95000029 0.100000001 4.6500001 
4.9000001 0.100000001 4.70000029 
4.9000001 0.100000001 4.75 
4.95000029 0.100000001 4.70000029 
4.95000029 0.100000001 4.75 
5 0.0500000007 4 
5 0.0500000007 4.05000019 
5.05000019 0.0500000007 4 
5.05000019 0.0500000007 4.05000019 
5 0.0500000007 4.0999999 
5 0.0500000007 4.1500001 
5.05000019 0.0500000007 4.0999999 
5.05000019 0.0500000007 4.1500001 
5 0.0500000007 4.20000029 
5 0.0500000007 4.25 
5.05000019 0.0500000007 4.20000029 
5.05000019 0.0500000007 4.25 
5 0.0500000007 4.30000019 
5 0.0500000007 4.3499999 
5.05000019 0.0500000007 4.30000019 
5.05000019 0.0500000007 4.3499999 
5 0.0500000007 4.4000001 
5 0.0500000007 4.45000029 
5.05000019 0.0500000007 4.4000001 
5.05000019 0.0500000007 4.45000029 
5 0.0500000007 4.5 
5 0.0500000007 4.55000019 
5.05000019 0.0500000007 4.5 
5.05000019 0.0500000007 4.55000019 
5 0.0500000007 4.5999999 
5 0.0500000007 4.6500001 
5.05000019 0.0500000007 4.5999999 
5.05000019 0.0500000007 4.6500001 
5 0.0500000007 4.70000029 
5 0.0500000007 4.75 
5.05000019 0.0500000007 4.70000029 
5.05000019 0.0500000007 4.75 
5 0.100000001 4 
5 0.100000001 4.05000019 
5.05000019 0.100000001 4 
5.05000019 0.100000001 4.05000019 
5 0.100000001 4.0999999 
5 0.100000001 4.1500001 
5.05000019 0.100000001 4.0999999 
5.05000019 0.100000001 4.1500001 
5 0.100000001 4.20000029 
5 0.100000001 4.25 
5.05000019 0.100000001 4.20000029 
5.05000019 0.100000001 4.25 
5 0.100000001 4.30000019 
5 0.100000001 4.3499999 
5.05000019 0.100000001 4.30000019 
5.05000019 0.100000001 4.3499999 
5 0.100000001 4.4000001 
5 0.100000001 4.45000029 
5.05000019 0.100000001 4.4000001 
5.05000019 0.100000001 4.45000029 
5 0.100000001 4.5 
5 0.100000001 4.55000019 
5.05000019 0.100000001 4.5 
5.05000019 0.100000001 4.55000019 
5 0.100000001 4.5999999 
5 0.100000001 4.6500001 
5.05000019 0.100000001 4.5999999 
5.05000019 0.100000001 4.6500001 
5 0.100000001 4.70000029 
5 0.100000001 4.75 
5.05000019 0.100000001 4.70000029 
5.05000019 0.100000001 4.75 
5.0999999 0.0500000007 4 
5.0999999 0.0500000007 4.05000019 
5.1500001 0.0500000007 4 
5.1500001 0.0500000007 4.05000019 
5.0999999 0.0500000007 4.0999999 
5.0999999 0.0500000007 4.1500001 
5.1500001 0.0500000007 4.0999999 
5.1500001 0.0500000007 4.1500001 
5.0999999 0.0500000007 4.20000029 
5.0999999 0.0500000007 4.25 
5.1500001 0.0500000007 4.20000029 
5.1500001 0.0500000007 4.25 
5.0999999 0.0500000007 4.30000019 
5.0999999 0.0500000007 4.3499999 
5.1500001 0.0500000007 4.30000019 
5.1500001 0.0500000007 4.3499999 
5.0999999 0.0500000007 4.4000001 
5.0999999 0.0500000007 4.45000029 
5.1500001 0.0500000007 4.4000001 
5.1500001 0.0500000007 4.45000029 
5.0999999 0.0500000007 4.5 
5.0999999 0.0500000007 4.55000019 
5.1500001 0.0500000007 4.5 
5.1500001 0.0500000007 4.55000019 
5.0999999 0.0500000007 4.5999999 
5.0999999 0.0500000007 4.6500001 
5.1500001 0.0500000007 4.5999999 
5.1500001 0.0500000007 4.6500001 
5.0999999 0.0500000007 4.70000029 
5.0999999 0.0500000007 4.75 
5.1500001 0.0500000007 4.70000029 
5.1500001 0.0500000007 4.75 
5.0999999 0.100000001 4 
5.0999999 0.100000001 4.05000019 
5.1500001 0.100000001 4 
5.1500001 0.100000001 4.05000019 
5.0999999 0.100000001 4.0999999 
5.0999999 0.100000001 4.1500001 
5.1500001 0.100000001 4.0999999 
5.1500001 0.100000001 4.1500001 
5.0999999 0.100000001 4.20000029 
5.0999999 0.100000001 4.25 
5.1500001 0.100000001 4.20000029 
5.1500001 0.100000001 4.25 
5.0999999 0.100000001 4.30000019 
5.0999999 0.100000001 4.3499999 
5.1500001 0.100000001 4.30000019 
5.1500001 0.100000001 4.3499999 
5.0999999 0.100000001 4.4000001 
5.0999999 0.100000001 4.45000029 
5.1500001 0.100000001 4.4000001 
5.1500001 0.100000001 4.45000029 
5.0999999 0.100000001 4.5 
5.0999999 0.100000001 4.55000019 
5.1500001 0.100000001 4.5 
5.1500001 0.100000001 4.55000019 
5.0999999 0.100000001 4.5999999 
5.0999999 0.100000001 4.6500001 
5.1500001 0.100000001 4.5999999 
5.1500001 0.100000001 4.6500001 
5.0999999 0.100000001 4.70000029 
5.0999999 0.100000001 4.75 
5.1500001 0.100000001 4.70000029 
5.1500001 0.100000001 4.75 
5.20000029 0.0500000007 4 
5.20000029 0.0500000007 4.05000019 
5.25 0.0500000007 4 
5.25 0.0500000007 4.05000019 
5.20000029 0.0500000007 4.0999999 
5.20000029 0.0500000007 4.1500001 
5.25 0.0500000007 4.0999999 
5.25 0.0500000007 4.1500001 
5.20000029 0.0500000007 4.20000029 
5.20000029 0.0500000007 4.25 
5.25 0.0500000007 4.20000029 
5.25 0.0500000007 4.25 
5.20000029 0.0500000007 4.30000019 
5.20000029 0.0500000007 4.3499999 
5.25 0.0500000007 4.30000019 
5.25 0.0500000007 4.3499999 
5.20000029 0.0500000007 4.4000001 
5.20000029 0.0500000007 4.45000029 
5.25 0.0500000007 4.4000001 
5.25 0.0500000007 4.45000029 
5.20000029 0.0500000007 4.5 
5.20000029 0.0500000007 4.55000019 
5.25 0.0500000007 4.5 
5.25 0.0500000007 4.55000019 
5.20000029 0.0500000007 4.5999999 
5.20000029 0.0500000007 4.6500001 
5.25 0.0500000007 4.5999999 
5.25 0.0500000007 4.6500001 
5.20000029 0.0500000007 4.70000029 
5.20000029 0.0500000007 4.75 
5.25 0.0500000007 4.70000029 
5.25 0.0500000007 4.75 
5.20000029 0.100000001 4 
5.20000029 0.100000001 4.05000019 
5.25 0.100000001 4 
5.25 0.100000001 4.05000019 
5.20000029 0.100000001 4.0999999 
5.20000029 0.100000001 4.1500001 
5.25 0.100000001 4.0999999 
5.25 0.100000001 4.1500001 
5.20000029 0.100000001 4.20000029 
5.20000029 0.100000001 4.25 
5.25 0.100000001 4.20000029 
5.25 0.100000001 4.25 
5.20000029 0.100000001 4.30000019 
5.20000029 0.100000001 4.3499999 
5.25 0.100000001 4.30000019 
5.25 0.100000001 4.3499999 
5.20000029 0.100000001 4.4000001 
5.20000029 0.100000001 4.45000029 
5.25 0.100000001 4.4000001 
5.25 0.100000001 4.45000029 
5.20000029 0.100000001 4.5 
5.20000029 0.100000001 4.55000019 
5.25 0.100000001 4.5 
5.25 0.100000001 4.55000019 
5.20000029 0.100000001 4.5999999 
5.20000029 0.100000001 4.6500001 
5.25 0.100000001 4.5999999 
5.25 0.100000001 4.6500001 
5.20000029 0.100000001 4.70000029 
5.20000029 0.100000001 4.75 
5.25 0.100000001 4.70000029 
5.25 0.100000001 4.75 
5.30000019 0.0500000007 4 
5.30000019 0.0500000007 4.05000019 
5.3499999 0.0500000007 4 
5.3499999 0.0500000007 4.05000019 
5.30000019 0.0500000007 4.0999999 
5.30000019 0.0500000007 4.1500001 
5.3499999 0.0500000007 4.0999999 
5.3499999 0.0500000007 4.1500001 
5.30000019 0.0500000007 4.20000029 
5.30000019 0.0500000007 4.25 
