ply
format ascii 1.0
comment created by gply, a Houdini tool.
comment converted from .[b]geo
comment for more information about Houdini, try:
comment www.sidefx.com
element vertex 442
property float x
property float y
property float z
element face 0
property list uchar int vertex_indices
end_header
0.379999995 0.379999995 0.5
0.399999976 0.379999995 0.5
0.419999987 0.379999995 0.479999989
0.419999987 0.379999995 0.5
0.419999987 0.379999995 0.519999981
0.399999976 0.399999976 0.5
0.419999987 0.399999976 0.5
0.419999987 0.419999987 0.5
0.419999987 0.439999998 0.5
0.459999979 0.379999995 0.459999979
0.439999998 0.379999995 0.479999989
0.439999998 0.379999995 0.5
0.459999979 0.379999995 0.479999989
0.459999979 0.379999995 0.5
0.439999998 0.379999995 0.519999981
0.459999979 0.379999995 0.519999981
0.459999979 0.379999995 0.539999962
0.459999979 0.399999976 0.459999979
0.439999998 0.399999976 0.479999989
0.439999998 0.399999976 0.5
0.439999998 0.419999987 0.479999989
0.439999998 0.419999987 0.5
0.459999979 0.399999976 0.479999989
0.459999979 0.399999976 0.5
0.459999979 0.419999987 0.479999989
0.459999979 0.419999987 0.5
0.439999998 0.399999976 0.519999981
0.439999998 0.419999987 0.519999981
0.459999979 0.399999976 0.519999981
0.459999979 0.399999976 0.539999962
0.459999979 0.419999987 0.519999981
0.439999998 0.439999998 0.5
0.439999998 0.459999979 0.5
0.459999979 0.439999998 0.479999989
0.459999979 0.439999998 0.5
0.459999979 0.459999979 0.5
0.459999979 0.439999998 0.519999981
0.459999979 0.479999989 0.5
0.459999979 0.5 0.5
0.479999989 0.379999995 0.439999998
0.479999989 0.379999995 0.459999979
0.5 0.379999995 0.439999998
0.5 0.379999995 0.459999979
0.479999989 0.379999995 0.479999989
0.479999989 0.379999995 0.5
0.5 0.379999995 0.479999989
0.5 0.379999995 0.5
0.479999989 0.379999995 0.519999981
0.479999989 0.379999995 0.539999962
0.5 0.379999995 0.519999981
0.5 0.379999995 0.539999962
0.479999989 0.379999995 0.560000002
0.5 0.379999995 0.560000002
0.479999989 0.399999976 0.459999979
0.479999989 0.419999987 0.459999979
0.5 0.399999976 0.439999998
0.5 0.399999976 0.459999979
0.5 0.419999987 0.459999979
0.479999989 0.399999976 0.479999989
0.479999989 0.399999976 0.5
0.479999989 0.419999987 0.479999989
0.479999989 0.419999987 0.5
0.5 0.399999976 0.479999989
0.5 0.399999976 0.5
0.5 0.419999987 0.479999989
0.5 0.419999987 0.5
0.479999989 0.399999976 0.519999981
0.479999989 0.399999976 0.539999962
0.479999989 0.419999987 0.519999981
0.479999989 0.419999987 0.539999962
0.5 0.399999976 0.519999981
0.5 0.399999976 0.539999962
0.5 0.419999987 0.519999981
0.5 0.419999987 0.539999962
0.5 0.399999976 0.560000002
0.5 0.439999998 0.459999979
0.5 0.459999979 0.459999979
0.479999989 0.439999998 0.479999989
0.479999989 0.439999998 0.5
0.479999989 0.459999979 0.479999989
0.479999989 0.459999979 0.5
0.5 0.439999998 0.479999989
0.5 0.439999998 0.5
0.5 0.459999979 0.479999989
0.5 0.459999979 0.5
0.479999989 0.439999998 0.519999981
0.479999989 0.459999979 0.519999981
0.5 0.439999998 0.519999981
0.5 0.439999998 0.539999962
0.5 0.459999979 0.519999981
0.5 0.459999979 0.539999962
0.479999989 0.479999989 0.479999989
0.479999989 0.479999989 0.5
0.479999989 0.5 0.5
0.5 0.479999989 0.479999989
0.5 0.479999989 0.5
0.5 0.5 0.479999989
0.5 0.5 0.5
0.479999989 0.479999989 0.519999981
0.5 0.479999989 0.519999981
0.5 0.5 0.519999981
0.479999989 0.519999981 0.5
0.5 0.519999981 0.5
0.5 0.539999962 0.5
0.5 0.560000002 0.5
0.519999981 0.379999995 0.419999987
0.539999962 0.379999995 0.419999987
0.519999981 0.379999995 0.439999998
0.519999981 0.379999995 0.459999979
0.539999962 0.379999995 0.439999998
0.539999962 0.379999995 0.459999979
0.519999981 0.379999995 0.479999989
0.519999981 0.379999995 0.5
0.539999962 0.379999995 0.479999989
0.539999962 0.379999995 0.5
0.519999981 0.379999995 0.519999981
0.519999981 0.379999995 0.539999962
0.539999962 0.379999995 0.519999981
0.539999962 0.379999995 0.539999962
0.519999981 0.379999995 0.560000002
0.519999981 0.379999995 0.579999983
0.539999962 0.379999995 0.560000002
0.539999962 0.379999995 0.579999983
0.539999962 0.399999976 0.419999987
0.539999962 0.419999987 0.419999987
0.519999981 0.399999976 0.439999998
0.519999981 0.399999976 0.459999979
0.519999981 0.419999987 0.439999998
0.519999981 0.419999987 0.459999979
0.539999962 0.399999976 0.439999998
0.539999962 0.399999976 0.459999979
0.539999962 0.419999987 0.439999998
0.539999962 0.419999987 0.459999979
0.519999981 0.399999976 0.479999989
0.519999981 0.399999976 0.5
0.519999981 0.419999987 0.479999989
0.519999981 0.419999987 0.5
0.539999962 0.399999976 0.479999989
0.539999962 0.399999976 0.5
0.539999962 0.419999987 0.479999989
0.539999962 0.419999987 0.5
0.519999981 0.399999976 0.519999981
0.519999981 0.399999976 0.539999962
0.519999981 0.419999987 0.519999981
0.519999981 0.419999987 0.539999962
0.539999962 0.399999976 0.519999981
0.539999962 0.399999976 0.539999962
0.539999962 0.419999987 0.519999981
0.539999962 0.419999987 0.539999962
0.519999981 0.399999976 0.560000002
0.519999981 0.419999987 0.560000002
0.539999962 0.399999976 0.560000002
0.539999962 0.399999976 0.579999983
0.539999962 0.419999987 0.560000002
0.539999962 0.419999987 0.579999983
0.519999981 0.439999998 0.439999998
0.519999981 0.439999998 0.459999979
0.519999981 0.459999979 0.459999979
0.539999962 0.439999998 0.439999998
0.539999962 0.439999998 0.459999979
0.539999962 0.459999979 0.439999998
0.539999962 0.459999979 0.459999979
0.519999981 0.439999998 0.479999989
0.519999981 0.439999998 0.5
0.519999981 0.459999979 0.479999989
0.519999981 0.459999979 0.5
0.539999962 0.439999998 0.479999989
0.539999962 0.439999998 0.5
0.539999962 0.459999979 0.479999989
0.539999962 0.459999979 0.5
0.519999981 0.439999998 0.519999981
0.519999981 0.439999998 0.539999962
0.519999981 0.459999979 0.519999981
0.519999981 0.459999979 0.539999962
0.539999962 0.439999998 0.519999981
0.539999962 0.439999998 0.539999962
0.539999962 0.459999979 0.519999981
0.539999962 0.459999979 0.539999962
0.519999981 0.439999998 0.560000002
0.539999962 0.439999998 0.560000002
0.539999962 0.459999979 0.560000002
0.519999981 0.479999989 0.459999979
0.539999962 0.479999989 0.459999979
0.539999962 0.5 0.459999979
0.519999981 0.479999989 0.479999989
0.519999981 0.479999989 0.5
0.519999981 0.5 0.479999989
0.519999981 0.5 0.5
0.539999962 0.479999989 0.479999989
0.539999962 0.479999989 0.5
0.539999962 0.5 0.479999989
0.539999962 0.5 0.5
0.519999981 0.479999989 0.519999981
0.519999981 0.479999989 0.539999962
0.519999981 0.5 0.519999981
0.539999962 0.479999989 0.519999981
0.539999962 0.479999989 0.539999962
0.539999962 0.5 0.519999981
0.539999962 0.5 0.539999962
0.519999981 0.519999981 0.479999989
0.519999981 0.519999981 0.5
0.519999981 0.539999962 0.479999989
0.519999981 0.539999962 0.5
0.539999962 0.519999981 0.479999989
0.539999962 0.519999981 0.5
0.539999962 0.539999962 0.479999989
0.539999962 0.539999962 0.5
0.519999981 0.519999981 0.519999981
0.519999981 0.539999962 0.519999981
0.539999962 0.519999981 0.519999981
0.539999962 0.539999962 0.519999981
0.519999981 0.560000002 0.5
0.519999981 0.579999983 0.5
0.539999962 0.560000002 0.479999989
0.539999962 0.560000002 0.5
0.539999962 0.579999983 0.5
0.539999962 0.560000002 0.519999981
0.539999962 0.599999964 0.5
0.579999983 0.379999995 0.379999995
0.560000002 0.379999995 0.399999976
0.560000002 0.379999995 0.419999987
0.579999983 0.379999995 0.399999976
0.579999983 0.379999995 0.419999987
0.560000002 0.379999995 0.439999998
0.560000002 0.379999995 0.459999979
0.579999983 0.379999995 0.439999998
0.579999983 0.379999995 0.459999979
0.560000002 0.379999995 0.479999989
0.560000002 0.379999995 0.5
0.579999983 0.379999995 0.479999989
0.579999983 0.379999995 0.5
0.560000002 0.379999995 0.519999981
0.560000002 0.379999995 0.539999962
0.579999983 0.379999995 0.519999981
0.579999983 0.379999995 0.539999962
0.560000002 0.379999995 0.560000002
0.560000002 0.379999995 0.579999983
0.579999983 0.379999995 0.560000002
0.579999983 0.379999995 0.579999983
0.560000002 0.379999995 0.599999964
0.579999983 0.379999995 0.599999964
0.579999983 0.379999995 0.620000005
0.560000002 0.399999976 0.399999976
0.560000002 0.399999976 0.419999987
0.560000002 0.419999987 0.419999987
0.579999983 0.399999976 0.399999976
0.579999983 0.399999976 0.419999987
0.579999983 0.419999987 0.399999976
0.579999983 0.419999987 0.419999987
0.560000002 0.399999976 0.439999998
0.560000002 0.399999976 0.459999979
0.560000002 0.419999987 0.439999998
0.560000002 0.419999987 0.459999979
0.579999983 0.399999976 0.439999998
0.579999983 0.399999976 0.459999979
0.579999983 0.419999987 0.439999998
0.579999983 0.419999987 0.459999979
0.560000002 0.399999976 0.479999989
0.560000002 0.399999976 0.5
0.560000002 0.419999987 0.479999989
0.560000002 0.419999987 0.5
0.579999983 0.399999976 0.479999989
0.579999983 0.399999976 0.5
0.579999983 0.419999987 0.479999989
0.579999983 0.419999987 0.5
0.560000002 0.399999976 0.519999981
0.560000002 0.399999976 0.539999962
0.560000002 0.419999987 0.519999981
0.560000002 0.419999987 0.539999962
0.579999983 0.399999976 0.519999981
0.579999983 0.399999976 0.539999962
0.579999983 0.419999987 0.519999981
0.579999983 0.419999987 0.539999962
0.560000002 0.399999976 0.560000002
0.560000002 0.399999976 0.579999983
0.560000002 0.419999987 0.560000002
0.560000002 0.419999987 0.579999983
0.579999983 0.399999976 0.560000002
0.579999983 0.399999976 0.579999983
0.579999983 0.419999987 0.560000002
0.579999983 0.419999987 0.579999983
0.560000002 0.399999976 0.599999964
0.579999983 0.399999976 0.599999964
0.579999983 0.419999987 0.599999964
0.560000002 0.439999998 0.419999987
0.579999983 0.439999998 0.419999987
0.579999983 0.459999979 0.419999987
0.560000002 0.439999998 0.439999998
0.560000002 0.439999998 0.459999979
0.560000002 0.459999979 0.439999998
0.560000002 0.459999979 0.459999979
0.579999983 0.439999998 0.439999998
0.579999983 0.439999998 0.459999979
0.579999983 0.459999979 0.439999998
0.579999983 0.459999979 0.459999979
0.560000002 0.439999998 0.479999989
0.560000002 0.439999998 0.5
0.560000002 0.459999979 0.479999989
0.560000002 0.459999979 0.5
0.579999983 0.439999998 0.479999989
0.579999983 0.439999998 0.5
0.579999983 0.459999979 0.479999989
0.579999983 0.459999979 0.5
0.560000002 0.439999998 0.519999981
0.560000002 0.439999998 0.539999962
0.560000002 0.459999979 0.519999981
0.560000002 0.459999979 0.539999962
0.579999983 0.439999998 0.519999981
0.579999983 0.439999998 0.539999962
0.579999983 0.459999979 0.519999981
0.579999983 0.459999979 0.539999962
0.560000002 0.439999998 0.560000002
0.560000002 0.439999998 0.579999983
0.560000002 0.459999979 0.560000002
0.579999983 0.439999998 0.560000002
0.579999983 0.439999998 0.579999983
0.579999983 0.459999979 0.560000002
0.579999983 0.459999979 0.579999983
0.560000002 0.479999989 0.439999998
0.560000002 0.479999989 0.459999979
0.560000002 0.5 0.459999979
0.579999983 0.479999989 0.439999998
0.579999983 0.479999989 0.459999979
0.579999983 0.5 0.439999998
0.579999983 0.5 0.459999979
0.560000002 0.479999989 0.479999989
0.560000002 0.479999989 0.5
0.560000002 0.5 0.479999989
0.560000002 0.5 0.5
0.579999983 0.479999989 0.479999989
0.579999983 0.479999989 0.5
0.579999983 0.5 0.479999989
0.579999983 0.5 0.5
0.560000002 0.479999989 0.519999981
0.560000002 0.479999989 0.539999962
0.560000002 0.5 0.519999981
0.560000002 0.5 0.539999962
0.579999983 0.479999989 0.519999981
0.579999983 0.479999989 0.539999962
0.579999983 0.5 0.519999981
0.579999983 0.5 0.539999962
0.560000002 0.479999989 0.560000002
0.579999983 0.479999989 0.560000002
0.579999983 0.5 0.560000002
0.560000002 0.519999981 0.459999979
0.560000002 0.539999962 0.459999979
0.560000002 0.519999981 0.479999989
0.560000002 0.519999981 0.5
0.560000002 0.539999962 0.479999989
0.560000002 0.539999962 0.5
0.560000002 0.519999981 0.519999981
0.560000002 0.519999981 0.539999962
0.560000002 0.539999962 0.519999981
0.560000002 0.539999962 0.539999962
0.560000002 0.560000002 0.479999989
0.560000002 0.560000002 0.5
0.560000002 0.560000002 0.519999981
0.599999964 0.379999995 0.379999995
0.620000005 0.379999995 0.359999985
0.620000005 0.379999995 0.379999995
0.599999964 0.379999995 0.399999976
0.599999964 0.379999995 0.419999987
0.620000005 0.379999995 0.399999976
0.620000005 0.379999995 0.419999987
0.599999964 0.379999995 0.439999998
0.599999964 0.379999995 0.459999979
0.620000005 0.379999995 0.439999998
0.620000005 0.379999995 0.459999979
0.599999964 0.379999995 0.479999989
0.599999964 0.379999995 0.5
0.620000005 0.379999995 0.479999989
0.620000005 0.379999995 0.5
0.599999964 0.379999995 0.519999981
0.599999964 0.379999995 0.539999962
0.620000005 0.379999995 0.519999981
0.620000005 0.379999995 0.539999962
0.599999964 0.379999995 0.560000002
0.599999964 0.379999995 0.579999983
0.620000005 0.379999995 0.560000002
0.620000005 0.379999995 0.579999983
0.599999964 0.379999995 0.599999964
0.599999964 0.379999995 0.620000005
0.620000005 0.379999995 0.599999964
0.620000005 0.379999995 0.620000005
0.599999964 0.399999976 0.379999995
0.620000005 0.399999976 0.379999995
0.599999964 0.399999976 0.399999976
0.599999964 0.399999976 0.419999987
0.599999964 0.419999987 0.399999976
0.599999964 0.419999987 0.419999987
0.620000005 0.399999976 0.399999976
0.620000005 0.399999976 0.419999987
0.599999964 0.399999976 0.439999998
0.599999964 0.399999976 0.459999979
0.599999964 0.419999987 0.439999998
0.599999964 0.419999987 0.459999979
0.620000005 0.399999976 0.439999998
0.620000005 0.399999976 0.459999979
0.599999964 0.399999976 0.479999989
0.599999964 0.399999976 0.5
0.599999964 0.419999987 0.479999989
0.599999964 0.419999987 0.5
0.620000005 0.399999976 0.479999989
0.620000005 0.399999976 0.5
0.599999964 0.399999976 0.519999981
0.599999964 0.399999976 0.539999962
0.599999964 0.419999987 0.519999981
0.599999964 0.419999987 0.539999962
0.620000005 0.399999976 0.519999981
0.620000005 0.399999976 0.539999962
0.599999964 0.399999976 0.560000002
0.599999964 0.399999976 0.579999983
0.599999964 0.419999987 0.560000002
0.599999964 0.419999987 0.579999983
0.620000005 0.399999976 0.560000002
0.620000005 0.399999976 0.579999983
0.599999964 0.399999976 0.599999964
0.599999964 0.399999976 0.620000005
0.599999964 0.419999987 0.599999964
0.620000005 0.399999976 0.599999964
0.620000005 0.399999976 0.620000005
0.599999964 0.439999998 0.399999976
0.599999964 0.439999998 0.419999987
0.599999964 0.459999979 0.419999987
0.599999964 0.439999998 0.439999998
0.599999964 0.439999998 0.459999979
0.599999964 0.459999979 0.439999998
0.599999964 0.459999979 0.459999979
0.599999964 0.439999998 0.479999989
0.599999964 0.439999998 0.5
0.599999964 0.459999979 0.479999989
0.599999964 0.459999979 0.5
0.599999964 0.439999998 0.519999981
0.599999964 0.439999998 0.539999962
0.599999964 0.459999979 0.519999981
0.599999964 0.459999979 0.539999962
0.599999964 0.439999998 0.560000002
0.599999964 0.439999998 0.579999983
0.599999964 0.459999979 0.560000002
0.599999964 0.459999979 0.579999983
0.599999964 0.439999998 0.599999964
0.620000005 0.379999995 0.639999986
