ply
format ascii 1.0
comment created by gply, a Houdini tool.
comment converted from .[b]geo
comment for more information about Houdini, try:
comment www.sidefx.com
element vertex 1302
property float x
property float y
property float z
element face 0
property list uchar int vertex_indices
end_header
0.426999986 0.507999957 0.616100013 
0.426999986 0.514100015 0.610000014 
0.426999986 0.514100015 0.616100013 
0.433099985 0.507999957 0.610000014 
0.433099985 0.507999957 0.616100013 
0.433099985 0.514100015 0.610000014 
0.433099985 0.514100015 0.616100013 
0.426999986 0.507999957 0.622200012 
0.426999986 0.507999957 0.628300011 
0.426999986 0.514100015 0.622200012 
0.426999986 0.514100015 0.628300011 
0.433099985 0.507999957 0.622200012 
0.433099985 0.507999957 0.628300011 
0.433099985 0.514100015 0.622200012 
0.433099985 0.514100015 0.628300011 
0.426999986 0.507999957 0.63440001 
0.426999986 0.507999957 0.640500009 
0.426999986 0.514100015 0.63440001 
0.426999986 0.514100015 0.640500009 
0.433099985 0.507999957 0.63440001 
0.433099985 0.507999957 0.640500009 
0.433099985 0.514100015 0.63440001 
0.433099985 0.514100015 0.640500009 
0.426999986 0.507999957 0.646600008 
0.426999986 0.507999957 0.652700007 
0.426999986 0.514100015 0.646600008 
0.426999986 0.514100015 0.652700007 
0.433099985 0.507999957 0.646600008 
0.433099985 0.507999957 0.652700007 
0.433099985 0.514100015 0.646600008 
0.433099985 0.514100015 0.652700007 
0.426999986 0.507999957 0.658800006 
0.426999986 0.507999957 0.664900005 
0.426999986 0.514100015 0.658800006 
0.433099985 0.507999957 0.658800006 
0.433099985 0.507999957 0.664900005 
0.433099985 0.514100015 0.658800006 
0.433099985 0.514100015 0.664900005 
0.426999986 0.507999957 0.671000004 
0.433099985 0.507999957 0.671000004 
0.433099985 0.507999957 0.677100003 
0.433099985 0.514100015 0.671000004 
0.426999986 0.520199955 0.585600019 
0.426999986 0.520199955 0.591700017 
0.433099985 0.520199955 0.585600019 
0.433099985 0.520199955 0.591700017 
0.433099985 0.526299953 0.585600019 
0.433099985 0.526299953 0.591700017 
0.426999986 0.520199955 0.597800016 
0.426999986 0.520199955 0.603900015 
0.433099985 0.520199955 0.597800016 
0.433099985 0.520199955 0.603900015 
0.433099985 0.526299953 0.597800016 
0.433099985 0.526299953 0.603900015 
0.426999986 0.520199955 0.610000014 
0.426999986 0.520199955 0.616100013 
0.433099985 0.520199955 0.610000014 
0.433099985 0.520199955 0.616100013 
0.433099985 0.526299953 0.610000014 
0.433099985 0.526299953 0.616100013 
0.426999986 0.520199955 0.622200012 
0.426999986 0.520199955 0.628300011 
0.433099985 0.520199955 0.622200012 
0.433099985 0.520199955 0.628300011 
0.433099985 0.526299953 0.622200012 
0.433099985 0.526299953 0.628300011 
0.433099985 0.520199955 0.63440001 
0.433099985 0.520199955 0.640500009 
0.433099985 0.526299953 0.63440001 
0.433099985 0.520199955 0.646600008 
0.433099985 0.520199955 0.652700007 
0.433099985 0.520199955 0.658800006 
0.439199984 0.507999957 0.585600019 
0.439199984 0.507999957 0.591700017 
0.439199984 0.514100015 0.585600019 
0.439199984 0.514100015 0.591700017 
0.445299983 0.507999957 0.585600019 
0.445299983 0.507999957 0.591700017 
0.445299983 0.514100015 0.585600019 
0.445299983 0.514100015 0.591700017 
0.439199984 0.507999957 0.597800016 
0.439199984 0.507999957 0.603900015 
0.439199984 0.514100015 0.597800016 
0.439199984 0.514100015 0.603900015 
0.445299983 0.507999957 0.597800016 
0.445299983 0.507999957 0.603900015 
0.445299983 0.514100015 0.597800016 
0.445299983 0.514100015 0.603900015 
0.439199984 0.507999957 0.610000014 
0.439199984 0.507999957 0.616100013 
0.439199984 0.514100015 0.610000014 
0.439199984 0.514100015 0.616100013 
0.445299983 0.507999957 0.610000014 
0.445299983 0.507999957 0.616100013 
0.445299983 0.514100015 0.610000014 
0.445299983 0.514100015 0.616100013 
0.439199984 0.507999957 0.622200012 
0.439199984 0.507999957 0.628300011 
0.439199984 0.514100015 0.622200012 
0.439199984 0.514100015 0.628300011 
0.445299983 0.507999957 0.622200012 
0.445299983 0.507999957 0.628300011 
0.445299983 0.514100015 0.622200012 
0.445299983 0.514100015 0.628300011 
0.439199984 0.507999957 0.63440001 
0.439199984 0.507999957 0.640500009 
0.439199984 0.514100015 0.63440001 
0.439199984 0.514100015 0.640500009 
0.445299983 0.507999957 0.63440001 
0.445299983 0.507999957 0.640500009 
0.445299983 0.514100015 0.63440001 
0.445299983 0.514100015 0.640500009 
0.439199984 0.507999957 0.646600008 
0.439199984 0.507999957 0.652700007 
0.439199984 0.514100015 0.646600008 
0.439199984 0.514100015 0.652700007 
0.445299983 0.507999957 0.646600008 
0.445299983 0.507999957 0.652700007 
0.445299983 0.514100015 0.646600008 
0.445299983 0.514100015 0.652700007 
0.439199984 0.507999957 0.658800006 
0.439199984 0.507999957 0.664900005 
0.439199984 0.514100015 0.658800006 
0.439199984 0.514100015 0.664900005 
0.445299983 0.507999957 0.658800006 
0.445299983 0.507999957 0.664900005 
0.445299983 0.514100015 0.658800006 
0.445299983 0.514100015 0.664900005 
0.439199984 0.507999957 0.671000004 
0.439199984 0.507999957 0.677100003 
0.439199984 0.514100015 0.671000004 
0.439199984 0.514100015 0.677100003 
0.445299983 0.507999957 0.671000004 
0.445299983 0.507999957 0.677100003 
0.445299983 0.514100015 0.671000004 
0.445299983 0.514100015 0.677100003 
0.439199984 0.520199955 0.585600019 
0.439199984 0.520199955 0.591700017 
0.439199984 0.526299953 0.585600019 
0.439199984 0.526299953 0.591700017 
0.445299983 0.520199955 0.585600019 
0.445299983 0.520199955 0.591700017 
0.445299983 0.526299953 0.585600019 
0.445299983 0.526299953 0.591700017 
0.439199984 0.520199955 0.597800016 
0.439199984 0.520199955 0.603900015 
0.439199984 0.526299953 0.597800016 
0.439199984 0.526299953 0.603900015 
0.445299983 0.520199955 0.597800016 
0.445299983 0.520199955 0.603900015 
0.445299983 0.526299953 0.597800016 
0.445299983 0.526299953 0.603900015 
0.439199984 0.520199955 0.610000014 
0.439199984 0.520199955 0.616100013 
0.439199984 0.526299953 0.610000014 
0.439199984 0.526299953 0.616100013 
0.445299983 0.520199955 0.610000014 
0.445299983 0.520199955 0.616100013 
0.445299983 0.526299953 0.610000014 
0.445299983 0.526299953 0.616100013 
0.439199984 0.520199955 0.622200012 
0.439199984 0.520199955 0.628300011 
0.439199984 0.526299953 0.622200012 
0.439199984 0.526299953 0.628300011 
0.445299983 0.520199955 0.622200012 
0.445299983 0.520199955 0.628300011 
0.445299983 0.526299953 0.622200012 
0.445299983 0.526299953 0.628300011 
0.439199984 0.520199955 0.63440001 
0.439199984 0.520199955 0.640500009 
0.439199984 0.526299953 0.63440001 
0.439199984 0.526299953 0.640500009 
0.445299983 0.520199955 0.63440001 
0.445299983 0.520199955 0.640500009 
0.445299983 0.526299953 0.63440001 
0.445299983 0.526299953 0.640500009 
0.439199984 0.520199955 0.646600008 
0.439199984 0.520199955 0.652700007 
0.439199984 0.526299953 0.646600008 
0.439199984 0.526299953 0.652700007 
0.445299983 0.520199955 0.646600008 
0.445299983 0.520199955 0.652700007 
0.445299983 0.526299953 0.646600008 
0.445299983 0.526299953 0.652700007 
0.439199984 0.520199955 0.658800006 
0.439199984 0.520199955 0.664900005 
0.439199984 0.526299953 0.658800006 
0.445299983 0.520199955 0.658800006 
0.445299983 0.520199955 0.664900005 
0.445299983 0.526299953 0.658800006 
0.445299983 0.526299953 0.664900005 
0.439199984 0.520199955 0.671000004 
0.445299983 0.520199955 0.671000004 
0.445299983 0.520199955 0.677100003 
0.445299983 0.526299953 0.671000004 
0.439199984 0.532399952 0.585600019 
0.439199984 0.532399952 0.591700017 
0.445299983 0.532399952 0.585600019 
0.445299983 0.532399952 0.591700017 
0.445299983 0.538499951 0.585600019 
0.445299983 0.538499951 0.591700017 
0.439199984 0.532399952 0.597800016 
0.439199984 0.532399952 0.603900015 
0.445299983 0.532399952 0.597800016 
0.445299983 0.532399952 0.603900015 
0.445299983 0.538499951 0.597800016 
0.439199984 0.532399952 0.610000014 
0.439199984 0.532399952 0.616100013 
0.445299983 0.532399952 0.610000014 
0.445299983 0.532399952 0.616100013 
0.439199984 0.532399952 0.622200012 
0.439199984 0.532399952 0.628300011 
0.445299983 0.532399952 0.622200012 
0.445299983 0.532399952 0.628300011 
0.445299983 0.532399952 0.63440001 
0.445299983 0.532399952 0.640500009 
0.445299983 0.532399952 0.646600008 
0.445299983 0.532399952 0.652700007 
0.445299983 0.532399952 0.658800006 
0.451399982 0.507999957 0.585600019 
0.451399982 0.507999957 0.591700017 
0.451399982 0.514100015 0.585600019 
0.451399982 0.514100015 0.591700017 
0.457499981 0.507999957 0.585600019 
0.457499981 0.507999957 0.591700017 
0.457499981 0.514100015 0.585600019 
0.457499981 0.514100015 0.591700017 
0.451399982 0.507999957 0.597800016 
0.451399982 0.507999957 0.603900015 
0.451399982 0.514100015 0.597800016 
0.451399982 0.514100015 0.603900015 
0.457499981 0.507999957 0.597800016 
0.457499981 0.507999957 0.603900015 
0.457499981 0.514100015 0.597800016 
0.457499981 0.514100015 0.603900015 
0.451399982 0.507999957 0.610000014 
0.451399982 0.507999957 0.616100013 
0.451399982 0.514100015 0.610000014 
0.451399982 0.514100015 0.616100013 
0.457499981 0.507999957 0.610000014 
0.457499981 0.507999957 0.616100013 
0.457499981 0.514100015 0.610000014 
0.457499981 0.514100015 0.616100013 
0.451399982 0.507999957 0.622200012 
0.451399982 0.507999957 0.628300011 
0.451399982 0.514100015 0.622200012 
0.451399982 0.514100015 0.628300011 
0.457499981 0.507999957 0.622200012 
0.457499981 0.507999957 0.628300011 
0.457499981 0.514100015 0.622200012 
0.457499981 0.514100015 0.628300011 
0.451399982 0.507999957 0.63440001 
0.451399982 0.507999957 0.640500009 
0.451399982 0.514100015 0.63440001 
0.451399982 0.514100015 0.640500009 
0.457499981 0.507999957 0.63440001 
0.457499981 0.507999957 0.640500009 
0.457499981 0.514100015 0.63440001 
0.457499981 0.514100015 0.640500009 
0.451399982 0.507999957 0.646600008 
0.451399982 0.507999957 0.652700007 
0.451399982 0.514100015 0.646600008 
0.451399982 0.514100015 0.652700007 
0.457499981 0.507999957 0.646600008 
0.457499981 0.507999957 0.652700007 
0.457499981 0.514100015 0.646600008 
0.457499981 0.514100015 0.652700007 
0.451399982 0.507999957 0.658800006 
0.451399982 0.507999957 0.664900005 
0.451399982 0.514100015 0.658800006 
0.451399982 0.514100015 0.664900005 
0.457499981 0.507999957 0.658800006 
0.457499981 0.507999957 0.664900005 
0.457499981 0.514100015 0.658800006 
0.457499981 0.514100015 0.664900005 
0.451399982 0.507999957 0.671000004 
0.451399982 0.507999957 0.677100003 
0.451399982 0.514100015 0.671000004 
0.451399982 0.514100015 0.677100003 
0.457499981 0.507999957 0.671000004 
0.457499981 0.507999957 0.677100003 
0.457499981 0.514100015 0.671000004 
0.457499981 0.514100015 0.677100003 
0.451399982 0.520199955 0.585600019 
0.451399982 0.520199955 0.591700017 
0.451399982 0.526299953 0.585600019 
0.451399982 0.526299953 0.591700017 
0.457499981 0.520199955 0.585600019 
0.457499981 0.520199955 0.591700017 
0.457499981 0.526299953 0.585600019 
0.457499981 0.526299953 0.591700017 
0.451399982 0.520199955 0.597800016 
0.451399982 0.520199955 0.603900015 
0.451399982 0.526299953 0.597800016 
0.451399982 0.526299953 0.603900015 
0.457499981 0.520199955 0.597800016 
0.457499981 0.520199955 0.603900015 
0.457499981 0.526299953 0.597800016 
0.457499981 0.526299953 0.603900015 
0.451399982 0.520199955 0.610000014 
0.451399982 0.520199955 0.616100013 
0.451399982 0.526299953 0.610000014 
0.451399982 0.526299953 0.616100013 
0.457499981 0.520199955 0.610000014 
0.457499981 0.520199955 0.616100013 
0.457499981 0.526299953 0.610000014 
0.457499981 0.526299953 0.616100013 
0.451399982 0.520199955 0.622200012 
0.451399982 0.520199955 0.628300011 
0.451399982 0.526299953 0.622200012 
0.451399982 0.526299953 0.628300011 
0.457499981 0.520199955 0.622200012 
0.457499981 0.520199955 0.628300011 
0.457499981 0.526299953 0.622200012 
0.457499981 0.526299953 0.628300011 
0.451399982 0.520199955 0.63440001 
0.451399982 0.520199955 0.640500009 
0.451399982 0.526299953 0.63440001 
0.451399982 0.526299953 0.640500009 
0.457499981 0.520199955 0.63440001 
0.457499981 0.520199955 0.640500009 
0.457499981 0.526299953 0.63440001 
0.457499981 0.526299953 0.640500009 
0.451399982 0.520199955 0.646600008 
0.451399982 0.520199955 0.652700007 
0.451399982 0.526299953 0.646600008 
0.451399982 0.526299953 0.652700007 
0.457499981 0.520199955 0.646600008 
0.457499981 0.520199955 0.652700007 
0.457499981 0.526299953 0.646600008 
0.457499981 0.526299953 0.652700007 
0.451399982 0.520199955 0.658800006 
0.451399982 0.520199955 0.664900005 
0.451399982 0.526299953 0.658800006 
0.451399982 0.526299953 0.664900005 
0.457499981 0.520199955 0.658800006 
0.457499981 0.520199955 0.664900005 
0.457499981 0.526299953 0.658800006 
0.457499981 0.526299953 0.664900005 
0.451399982 0.520199955 0.671000004 
0.451399982 0.520199955 0.677100003 
0.451399982 0.526299953 0.671000004 
0.451399982 0.526299953 0.677100003 
0.457499981 0.520199955 0.671000004 
0.457499981 0.520199955 0.677100003 
0.457499981 0.526299953 0.671000004 
0.457499981 0.526299953 0.677100003 
0.451399982 0.532399952 0.585600019 
0.451399982 0.532399952 0.591700017 
0.451399982 0.538499951 0.585600019 
0.451399982 0.538499951 0.591700017 
0.457499981 0.532399952 0.585600019 
0.457499981 0.532399952 0.591700017 
0.457499981 0.538499951 0.585600019 
0.457499981 0.538499951 0.591700017 
0.451399982 0.532399952 0.597800016 
0.451399982 0.532399952 0.603900015 
0.451399982 0.538499951 0.597800016 
0.451399982 0.538499951 0.603900015 
0.457499981 0.532399952 0.597800016 
0.457499981 0.532399952 0.603900015 
0.457499981 0.538499951 0.597800016 
0.457499981 0.538499951 0.603900015 
0.451399982 0.532399952 0.610000014 
0.451399982 0.532399952 0.616100013 
0.451399982 0.538499951 0.610000014 
0.451399982 0.538499951 0.616100013 
0.457499981 0.532399952 0.610000014 
0.457499981 0.532399952 0.616100013 
0.457499981 0.538499951 0.610000014 
0.457499981 0.538499951 0.616100013 
0.451399982 0.532399952 0.622200012 
0.451399982 0.532399952 0.628300011 
0.451399982 0.538499951 0.622200012 
0.451399982 0.538499951 0.628300011 
0.457499981 0.532399952 0.622200012 
0.457499981 0.532399952 0.628300011 
0.457499981 0.538499951 0.622200012 
0.457499981 0.538499951 0.628300011 
0.451399982 0.532399952 0.63440001 
0.451399982 0.532399952 0.640500009 
0.451399982 0.538499951 0.63440001 
0.451399982 0.538499951 0.640500009 
0.457499981 0.532399952 0.63440001 
0.457499981 0.532399952 0.640500009 
0.457499981 0.538499951 0.63440001 
0.457499981 0.538499951 0.640500009 
0.451399982 0.532399952 0.646600008 
0.451399982 0.532399952 0.652700007 
0.451399982 0.538499951 0.646600008 
0.457499981 0.532399952 0.646600008 
0.457499981 0.532399952 0.652700007 
0.457499981 0.538499951 0.646600008 
0.457499981 0.538499951 0.652700007 
0.451399982 0.532399952 0.658800006 
0.451399982 0.532399952 0.664900005 
0.457499981 0.532399952 0.658800006 
0.457499981 0.532399952 0.664900005 
0.457499981 0.538499951 0.658800006 
0.451399982 0.532399952 0.671000004 
0.457499981 0.532399952 0.671000004 
0.457499981 0.532399952 0.677100003 
0.451399982 0.54459995 0.585600019 
0.457499981 0.54459995 0.585600019 
0.457499981 0.54459995 0.591700017 
0.457499981 0.54459995 0.597800016 
0.457499981 0.54459995 0.603900015 
0.457499981 0.54459995 0.610000014 
0.457499981 0.54459995 0.616100013 
0.457499981 0.54459995 0.622200012 
0.46359998 0.507999957 0.585600019 
0.46359998 0.507999957 0.591700017 
0.46359998 0.514100015 0.585600019 
0.46359998 0.514100015 0.591700017 
0.469699979 0.507999957 0.585600019 
0.469699979 0.507999957 0.591700017 
0.469699979 0.514100015 0.585600019 
0.469699979 0.514100015 0.591700017 
0.46359998 0.507999957 0.597800016 
0.46359998 0.507999957 0.603900015 
0.46359998 0.514100015 0.597800016 
0.46359998 0.514100015 0.603900015 
0.469699979 0.507999957 0.597800016 
0.469699979 0.507999957 0.603900015 
0.469699979 0.514100015 0.597800016 
0.469699979 0.514100015 0.603900015 
0.46359998 0.507999957 0.610000014 
0.46359998 0.507999957 0.616100013 
0.46359998 0.514100015 0.610000014 
0.46359998 0.514100015 0.616100013 
0.469699979 0.507999957 0.610000014 
0.469699979 0.507999957 0.616100013 
0.469699979 0.514100015 0.610000014 
0.469699979 0.514100015 0.616100013 
0.46359998 0.507999957 0.622200012 
0.46359998 0.507999957 0.628300011 
0.46359998 0.514100015 0.622200012 
0.46359998 0.514100015 0.628300011 
0.469699979 0.507999957 0.622200012 
0.469699979 0.507999957 0.628300011 
0.469699979 0.514100015 0.622200012 
0.469699979 0.514100015 0.628300011 
0.46359998 0.507999957 0.63440001 
0.46359998 0.507999957 0.640500009 
0.46359998 0.514100015 0.63440001 
0.46359998 0.514100015 0.640500009 
0.469699979 0.507999957 0.63440001 
0.469699979 0.507999957 0.640500009 
0.469699979 0.514100015 0.63440001 
0.469699979 0.514100015 0.640500009 
0.46359998 0.507999957 0.646600008 
0.46359998 0.507999957 0.652700007 
0.46359998 0.514100015 0.646600008 
0.46359998 0.514100015 0.652700007 
0.469699979 0.507999957 0.646600008 
0.469699979 0.507999957 0.652700007 
0.469699979 0.514100015 0.646600008 
0.469699979 0.514100015 0.652700007 
0.46359998 0.507999957 0.658800006 
0.46359998 0.507999957 0.664900005 
0.46359998 0.514100015 0.658800006 
0.46359998 0.514100015 0.664900005 
0.469699979 0.507999957 0.658800006 
0.469699979 0.507999957 0.664900005 
0.469699979 0.514100015 0.658800006 
0.469699979 0.514100015 0.664900005 
0.46359998 0.507999957 0.671000004 
0.46359998 0.507999957 0.677100003 
0.46359998 0.514100015 0.671000004 
0.46359998 0.514100015 0.677100003 
0.469699979 0.507999957 0.671000004 
0.469699979 0.507999957 0.677100003 
0.469699979 0.514100015 0.671000004 
0.469699979 0.514100015 0.677100003 
0.46359998 0.520199955 0.585600019 
0.46359998 0.520199955 0.591700017 
0.46359998 0.526299953 0.585600019 
0.46359998 0.526299953 0.591700017 
0.469699979 0.520199955 0.585600019 
0.469699979 0.520199955 0.591700017 
0.469699979 0.526299953 0.585600019 
0.469699979 0.526299953 0.591700017 
0.46359998 0.520199955 0.597800016 
0.46359998 0.520199955 0.603900015 
0.46359998 0.526299953 0.597800016 
0.46359998 0.526299953 0.603900015 
0.469699979 0.520199955 0.597800016 
0.469699979 0.520199955 0.603900015 
0.469699979 0.526299953 0.597800016 
0.469699979 0.526299953 0.603900015 
0.46359998 0.520199955 0.610000014 
0.46359998 0.520199955 0.616100013 
0.46359998 0.526299953 0.610000014 
0.46359998 0.526299953 0.616100013 
0.469699979 0.520199955 0.610000014 
0.469699979 0.520199955 0.616100013 
0.469699979 0.526299953 0.610000014 
0.469699979 0.526299953 0.616100013 
0.46359998 0.520199955 0.622200012 
0.46359998 0.520199955 0.628300011 
0.46359998 0.526299953 0.622200012 
0.46359998 0.526299953 0.628300011 
0.469699979 0.520199955 0.622200012 
0.469699979 0.520199955 0.628300011 
0.469699979 0.526299953 0.622200012 
0.469699979 0.526299953 0.628300011 
0.46359998 0.520199955 0.63440001 
0.46359998 0.520199955 0.640500009 
0.46359998 0.526299953 0.63440001 
0.46359998 0.526299953 0.640500009 
0.469699979 0.520199955 0.63440001 
0.469699979 0.520199955 0.640500009 
0.469699979 0.526299953 0.63440001 
0.469699979 0.526299953 0.640500009 
0.46359998 0.520199955 0.646600008 
0.46359998 0.520199955 0.652700007 
0.46359998 0.526299953 0.646600008 
0.46359998 0.526299953 0.652700007 
0.469699979 0.520199955 0.646600008 
0.469699979 0.520199955 0.652700007 
0.469699979 0.526299953 0.646600008 
0.469699979 0.526299953 0.652700007 
0.46359998 0.520199955 0.658800006 
0.46359998 0.520199955 0.664900005 
0.46359998 0.526299953 0.658800006 
0.46359998 0.526299953 0.664900005 
0.469699979 0.520199955 0.658800006 
0.469699979 0.520199955 0.664900005 
0.469699979 0.526299953 0.658800006 
0.469699979 0.526299953 0.664900005 
0.46359998 0.520199955 0.671000004 
0.46359998 0.520199955 0.677100003 
0.46359998 0.526299953 0.671000004 
0.46359998 0.526299953 0.677100003 
0.469699979 0.520199955 0.671000004 
0.469699979 0.520199955 0.677100003 
0.469699979 0.526299953 0.671000004 
0.469699979 0.526299953 0.677100003 
0.46359998 0.532399952 0.585600019 
0.46359998 0.532399952 0.591700017 
0.46359998 0.538499951 0.585600019 
0.46359998 0.538499951 0.591700017 
0.469699979 0.532399952 0.585600019 
0.469699979 0.532399952 0.591700017 
0.469699979 0.538499951 0.585600019 
0.469699979 0.538499951 0.591700017 
0.46359998 0.532399952 0.597800016 
0.46359998 0.532399952 0.603900015 
0.46359998 0.538499951 0.597800016 
0.46359998 0.538499951 0.603900015 
0.469699979 0.532399952 0.597800016 
0.469699979 0.532399952 0.603900015 
0.469699979 0.538499951 0.597800016 
0.469699979 0.538499951 0.603900015 
0.46359998 0.532399952 0.610000014 
0.46359998 0.532399952 0.616100013 
0.46359998 0.538499951 0.610000014 
0.46359998 0.538499951 0.616100013 
0.469699979 0.532399952 0.610000014 
0.469699979 0.532399952 0.616100013 
0.469699979 0.538499951 0.610000014 
0.469699979 0.538499951 0.616100013 
0.46359998 0.532399952 0.622200012 
0.46359998 0.532399952 0.628300011 
0.46359998 0.538499951 0.622200012 
0.46359998 0.538499951 0.628300011 
0.469699979 0.532399952 0.622200012 
0.469699979 0.532399952 0.628300011 
0.469699979 0.538499951 0.622200012 
0.469699979 0.538499951 0.628300011 
0.46359998 0.532399952 0.63440001 
0.46359998 0.532399952 0.640500009 
0.46359998 0.538499951 0.63440001 
0.46359998 0.538499951 0.640500009 
0.469699979 0.532399952 0.63440001 
0.469699979 0.532399952 0.640500009 
0.469699979 0.538499951 0.63440001 
0.469699979 0.538499951 0.640500009 
0.46359998 0.532399952 0.646600008 
0.46359998 0.532399952 0.652700007 
0.46359998 0.538499951 0.646600008 
0.46359998 0.538499951 0.652700007 
0.469699979 0.532399952 0.646600008 
0.469699979 0.532399952 0.652700007 
0.469699979 0.538499951 0.646600008 
0.469699979 0.538499951 0.652700007 
0.46359998 0.532399952 0.658800006 
0.46359998 0.532399952 0.664900005 
0.46359998 0.538499951 0.658800006 
0.46359998 0.538499951 0.664900005 
0.469699979 0.532399952 0.658800006 
0.469699979 0.532399952 0.664900005 
0.469699979 0.538499951 0.658800006 
0.469699979 0.538499951 0.664900005 
0.46359998 0.532399952 0.671000004 
0.46359998 0.532399952 0.677100003 
0.46359998 0.538499951 0.671000004 
0.469699979 0.532399952 0.671000004 
0.469699979 0.532399952 0.677100003 
0.469699979 0.538499951 0.671000004 
0.469699979 0.538499951 0.677100003 
0.46359998 0.54459995 0.585600019 
0.46359998 0.54459995 0.591700017 
0.46359998 0.550699949 0.585600019 
0.469699979 0.54459995 0.585600019 
0.469699979 0.54459995 0.591700017 
0.469699979 0.550699949 0.585600019 
0.469699979 0.550699949 0.591700017 
0.46359998 0.54459995 0.597800016 
0.46359998 0.54459995 0.603900015 
0.469699979 0.54459995 0.597800016 
0.469699979 0.54459995 0.603900015 
0.469699979 0.550699949 0.597800016 
0.46359998 0.54459995 0.610000014 
0.46359998 0.54459995 0.616100013 
0.469699979 0.54459995 0.610000014 
0.469699979 0.54459995 0.616100013 
0.46359998 0.54459995 0.622200012 
0.46359998 0.54459995 0.628300011 
0.469699979 0.54459995 0.622200012 
0.469699979 0.54459995 0.628300011 
0.46359998 0.54459995 0.63440001 
0.46359998 0.54459995 0.640500009 
0.469699979 0.54459995 0.63440001 
0.469699979 0.54459995 0.640500009 
0.46359998 0.54459995 0.646600008 
0.46359998 0.54459995 0.652700007 
0.469699979 0.54459995 0.646600008 
0.469699979 0.54459995 0.652700007 
0.469699979 0.54459995 0.658800006 
0.475799978 0.507999957 0.585600019 
0.475799978 0.507999957 0.591700017 
0.475799978 0.514100015 0.585600019 
0.475799978 0.514100015 0.591700017 
0.481899977 0.507999957 0.585600019 
0.481899977 0.507999957 0.591700017 
0.481899977 0.514100015 0.585600019 
0.481899977 0.514100015 0.591700017 
0.475799978 0.507999957 0.597800016 
0.475799978 0.507999957 0.603900015 
0.475799978 0.514100015 0.597800016 
0.475799978 0.514100015 0.603900015 
0.481899977 0.507999957 0.597800016 
0.481899977 0.507999957 0.603900015 
0.481899977 0.514100015 0.597800016 
0.481899977 0.514100015 0.603900015 
0.475799978 0.507999957 0.610000014 
0.475799978 0.507999957 0.616100013 
0.475799978 0.514100015 0.610000014 
0.475799978 0.514100015 0.616100013 
0.481899977 0.507999957 0.610000014 
0.481899977 0.507999957 0.616100013 
0.481899977 0.514100015 0.610000014 
0.481899977 0.514100015 0.616100013 
0.475799978 0.507999957 0.622200012 
0.475799978 0.507999957 0.628300011 
0.475799978 0.514100015 0.622200012 
0.475799978 0.514100015 0.628300011 
0.481899977 0.507999957 0.622200012 
0.481899977 0.507999957 0.628300011 
0.481899977 0.514100015 0.622200012 
0.481899977 0.514100015 0.628300011 
0.475799978 0.507999957 0.63440001 
0.475799978 0.507999957 0.640500009 
0.475799978 0.514100015 0.63440001 
0.475799978 0.514100015 0.640500009 
0.481899977 0.507999957 0.63440001 
0.481899977 0.507999957 0.640500009 
0.481899977 0.514100015 0.63440001 
0.481899977 0.514100015 0.640500009 
0.475799978 0.507999957 0.646600008 
0.475799978 0.507999957 0.652700007 
0.475799978 0.514100015 0.646600008 
0.475799978 0.514100015 0.652700007 
0.481899977 0.507999957 0.646600008 
0.481899977 0.507999957 0.652700007 
0.481899977 0.514100015 0.646600008 
0.481899977 0.514100015 0.652700007 
0.475799978 0.507999957 0.658800006 
0.475799978 0.507999957 0.664900005 
0.475799978 0.514100015 0.658800006 
0.475799978 0.514100015 0.664900005 
0.481899977 0.507999957 0.658800006 
0.481899977 0.507999957 0.664900005 
0.481899977 0.514100015 0.658800006 
0.481899977 0.514100015 0.664900005 
0.475799978 0.507999957 0.671000004 
0.475799978 0.507999957 0.677100003 
0.475799978 0.514100015 0.671000004 
0.475799978 0.514100015 0.677100003 
0.481899977 0.507999957 0.671000004 
0.481899977 0.507999957 0.677100003 
0.481899977 0.514100015 0.671000004 
0.481899977 0.514100015 0.677100003 
0.475799978 0.520199955 0.585600019 
0.475799978 0.520199955 0.591700017 
0.475799978 0.526299953 0.585600019 
0.475799978 0.526299953 0.591700017 
0.481899977 0.520199955 0.585600019 
0.481899977 0.520199955 0.591700017 
0.481899977 0.526299953 0.585600019 
0.481899977 0.526299953 0.591700017 
0.475799978 0.520199955 0.597800016 
0.475799978 0.520199955 0.603900015 
0.475799978 0.526299953 0.597800016 
0.475799978 0.526299953 0.603900015 
0.481899977 0.520199955 0.597800016 
0.481899977 0.520199955 0.603900015 
0.481899977 0.526299953 0.597800016 
0.481899977 0.526299953 0.603900015 
0.475799978 0.520199955 0.610000014 
0.475799978 0.520199955 0.616100013 
0.475799978 0.526299953 0.610000014 
0.475799978 0.526299953 0.616100013 
0.481899977 0.520199955 0.610000014 
0.481899977 0.520199955 0.616100013 
0.481899977 0.526299953 0.610000014 
0.481899977 0.526299953 0.616100013 
0.475799978 0.520199955 0.622200012 
0.475799978 0.520199955 0.628300011 
0.475799978 0.526299953 0.622200012 
0.475799978 0.526299953 0.628300011 
0.481899977 0.520199955 0.622200012 
0.481899977 0.520199955 0.628300011 
0.481899977 0.526299953 0.622200012 
0.481899977 0.526299953 0.628300011 
0.475799978 0.520199955 0.63440001 
0.475799978 0.520199955 0.640500009 
0.475799978 0.526299953 0.63440001 
0.475799978 0.526299953 0.640500009 
0.481899977 0.520199955 0.63440001 
0.481899977 0.520199955 0.640500009 
0.481899977 0.526299953 0.63440001 
0.481899977 0.526299953 0.640500009 
0.475799978 0.520199955 0.646600008 
0.475799978 0.520199955 0.652700007 
0.475799978 0.526299953 0.646600008 
0.475799978 0.526299953 0.652700007 
0.481899977 0.520199955 0.646600008 
0.481899977 0.520199955 0.652700007 
0.481899977 0.526299953 0.646600008 
0.481899977 0.526299953 0.652700007 
0.475799978 0.520199955 0.658800006 
0.475799978 0.520199955 0.664900005 
0.475799978 0.526299953 0.658800006 
0.475799978 0.526299953 0.664900005 
0.481899977 0.520199955 0.658800006 
0.481899977 0.520199955 0.664900005 
0.481899977 0.526299953 0.658800006 
0.481899977 0.526299953 0.664900005 
0.475799978 0.520199955 0.671000004 
0.475799978 0.520199955 0.677100003 
0.475799978 0.526299953 0.671000004 
0.475799978 0.526299953 0.677100003 
0.481899977 0.520199955 0.671000004 
0.481899977 0.520199955 0.677100003 
0.481899977 0.526299953 0.671000004 
0.481899977 0.526299953 0.677100003 
0.475799978 0.532399952 0.585600019 
0.475799978 0.532399952 0.591700017 
0.475799978 0.538499951 0.585600019 
0.475799978 0.538499951 0.591700017 
0.481899977 0.532399952 0.585600019 
0.481899977 0.532399952 0.591700017 
0.481899977 0.538499951 0.585600019 
0.481899977 0.538499951 0.591700017 
0.475799978 0.532399952 0.597800016 
0.475799978 0.532399952 0.603900015 
0.475799978 0.538499951 0.597800016 
0.475799978 0.538499951 0.603900015 
0.481899977 0.532399952 0.597800016 
0.481899977 0.532399952 0.603900015 
0.481899977 0.538499951 0.597800016 
0.481899977 0.538499951 0.603900015 
0.475799978 0.532399952 0.610000014 
0.475799978 0.532399952 0.616100013 
0.475799978 0.538499951 0.610000014 
0.475799978 0.538499951 0.616100013 
0.481899977 0.532399952 0.610000014 
0.481899977 0.532399952 0.616100013 
0.481899977 0.538499951 0.610000014 
0.481899977 0.538499951 0.616100013 
0.475799978 0.532399952 0.622200012 
0.475799978 0.532399952 0.628300011 
0.475799978 0.538499951 0.622200012 
0.475799978 0.538499951 0.628300011 
0.481899977 0.532399952 0.622200012 
0.481899977 0.532399952 0.628300011 
0.481899977 0.538499951 0.622200012 
0.481899977 0.538499951 0.628300011 
0.475799978 0.532399952 0.63440001 
0.475799978 0.532399952 0.640500009 
0.475799978 0.538499951 0.63440001 
0.475799978 0.538499951 0.640500009 
0.481899977 0.532399952 0.63440001 
0.481899977 0.532399952 0.640500009 
0.481899977 0.538499951 0.63440001 
0.481899977 0.538499951 0.640500009 
0.475799978 0.532399952 0.646600008 
0.475799978 0.532399952 0.652700007 
0.475799978 0.538499951 0.646600008 
0.475799978 0.538499951 0.652700007 
0.481899977 0.532399952 0.646600008 
0.481899977 0.532399952 0.652700007 
0.481899977 0.538499951 0.646600008 
0.481899977 0.538499951 0.652700007 
0.475799978 0.532399952 0.658800006 
0.475799978 0.532399952 0.664900005 
0.475799978 0.538499951 0.658800006 
0.475799978 0.538499951 0.664900005 
0.481899977 0.532399952 0.658800006 
0.481899977 0.532399952 0.664900005 
0.481899977 0.538499951 0.658800006 
0.481899977 0.538499951 0.664900005 
0.475799978 0.532399952 0.671000004 
0.475799978 0.532399952 0.677100003 
0.475799978 0.538499951 0.671000004 
0.475799978 0.538499951 0.677100003 
0.481899977 0.532399952 0.671000004 
0.481899977 0.532399952 0.677100003 
0.481899977 0.538499951 0.671000004 
0.481899977 0.538499951 0.677100003 
0.475799978 0.54459995 0.585600019 
0.475799978 0.54459995 0.591700017 
0.475799978 0.550699949 0.585600019 
0.475799978 0.550699949 0.591700017 
0.481899977 0.54459995 0.585600019 
0.481899977 0.54459995 0.591700017 
0.481899977 0.550699949 0.585600019 
0.481899977 0.550699949 0.591700017 
0.475799978 0.54459995 0.597800016 
0.475799978 0.54459995 0.603900015 
0.475799978 0.550699949 0.597800016 
0.475799978 0.550699949 0.603900015 
0.481899977 0.54459995 0.597800016 
0.481899977 0.54459995 0.603900015 
0.481899977 0.550699949 0.597800016 
0.481899977 0.550699949 0.603900015 
0.475799978 0.54459995 0.610000014 
0.475799978 0.54459995 0.616100013 
0.475799978 0.550699949 0.610000014 
0.475799978 0.550699949 0.616100013 
0.481899977 0.54459995 0.610000014 
0.481899977 0.54459995 0.616100013 
0.481899977 0.550699949 0.610000014 
0.481899977 0.550699949 0.616100013 
0.475799978 0.54459995 0.622200012 
0.475799978 0.54459995 0.628300011 
0.475799978 0.550699949 0.622200012 
0.475799978 0.550699949 0.628300011 
0.481899977 0.54459995 0.622200012 
0.481899977 0.54459995 0.628300011 
0.481899977 0.550699949 0.622200012 
0.481899977 0.550699949 0.628300011 
0.475799978 0.54459995 0.63440001 
0.475799978 0.54459995 0.640500009 
0.475799978 0.550699949 0.63440001 
0.481899977 0.54459995 0.63440001 
0.481899977 0.54459995 0.640500009 
0.481899977 0.550699949 0.63440001 
0.481899977 0.550699949 0.640500009 
0.475799978 0.54459995 0.646600008 
0.475799978 0.54459995 0.652700007 
0.481899977 0.54459995 0.646600008 
0.481899977 0.54459995 0.652700007 
0.481899977 0.550699949 0.646600008 
0.475799978 0.54459995 0.658800006 
0.475799978 0.54459995 0.664900005 
0.481899977 0.54459995 0.658800006 
0.481899977 0.54459995 0.664900005 
0.481899977 0.54459995 0.671000004 
0.433099985 0.507999957 0.683200002 
0.439199984 0.507999957 0.683200002 
0.439199984 0.507999957 0.689300001 
0.439199984 0.514100015 0.683200002 
0.445299983 0.507999957 0.683200002 
0.445299983 0.507999957 0.689300001 
0.445299983 0.514100015 0.683200002 
0.445299983 0.514100015 0.689300001 
0.445299983 0.507999957 0.6954 
0.445299983 0.520199955 0.683200002 
0.451399982 0.507999957 0.683200002 
0.451399982 0.507999957 0.689300001 
0.451399982 0.514100015 0.683200002 
0.451399982 0.514100015 0.689300001 
0.457499981 0.507999957 0.683200002 
0.457499981 0.507999957 0.689300001 
0.457499981 0.514100015 0.683200002 
0.457499981 0.514100015 0.689300001 
0.451399982 0.507999957 0.6954 
0.451399982 0.507999957 0.701499999 
0.451399982 0.514100015 0.6954 
0.457499981 0.507999957 0.6954 
0.457499981 0.507999957 0.701499999 
0.457499981 0.514100015 0.6954 
0.457499981 0.514100015 0.701499999 
0.451399982 0.520199955 0.683200002 
0.451399982 0.520199955 0.689300001 
0.457499981 0.520199955 0.683200002 
0.457499981 0.520199955 0.689300001 
0.457499981 0.526299953 0.683200002 
0.457499981 0.520199955 0.6954 
0.46359998 0.507999957 0.683200002 
0.46359998 0.507999957 0.689300001 
0.46359998 0.514100015 0.683200002 
0.46359998 0.514100015 0.689300001 
0.469699979 0.507999957 0.683200002 
0.469699979 0.507999957 0.689300001 
0.469699979 0.514100015 0.683200002 
0.469699979 0.514100015 0.689300001 
0.46359998 0.507999957 0.6954 
0.46359998 0.507999957 0.701499999 
0.46359998 0.514100015 0.6954 
0.46359998 0.514100015 0.701499999 
0.469699979 0.507999957 0.6954 
0.469699979 0.507999957 0.701499999 
0.469699979 0.514100015 0.6954 
0.469699979 0.514100015 0.701499999 
0.46359998 0.507999957 0.707599998 
0.469699979 0.507999957 0.707599998 
0.469699979 0.514100015 0.707599998 
0.46359998 0.520199955 0.683200002 
0.46359998 0.520199955 0.689300001 
0.46359998 0.526299953 0.683200002 
0.46359998 0.526299953 0.689300001 
0.469699979 0.520199955 0.683200002 
0.469699979 0.520199955 0.689300001 
0.469699979 0.526299953 0.683200002 
0.469699979 0.526299953 0.689300001 
0.46359998 0.520199955 0.6954 
0.469699979 0.520199955 0.6954 
0.469699979 0.520199955 0.701499999 
0.469699979 0.526299953 0.6954 
0.46359998 0.532399952 0.683200002 
0.469699979 0.532399952 0.683200002 
0.475799978 0.507999957 0.683200002 
0.475799978 0.507999957 0.689300001 
0.475799978 0.514100015 0.683200002 
0.475799978 0.514100015 0.689300001 
0.481899977 0.507999957 0.683200002 
0.481899977 0.507999957 0.689300001 
0.481899977 0.514100015 0.683200002 
0.481899977 0.514100015 0.689300001 
0.475799978 0.507999957 0.6954 
0.475799978 0.507999957 0.701499999 
0.475799978 0.514100015 0.6954 
0.475799978 0.514100015 0.701499999 
0.481899977 0.507999957 0.6954 
0.481899977 0.507999957 0.701499999 
0.481899977 0.514100015 0.6954 
0.481899977 0.514100015 0.701499999 
0.475799978 0.507999957 0.707599998 
0.475799978 0.507999957 0.713699996 
0.475799978 0.514100015 0.707599998 
0.481899977 0.507999957 0.707599998 
0.481899977 0.507999957 0.713699996 
0.481899977 0.514100015 0.707599998 
0.475799978 0.520199955 0.683200002 
0.475799978 0.520199955 0.689300001 
0.475799978 0.526299953 0.683200002 
0.475799978 0.526299953 0.689300001 
0.481899977 0.520199955 0.683200002 
0.481899977 0.520199955 0.689300001 
0.481899977 0.526299953 0.683200002 
0.481899977 0.526299953 0.689300001 
0.475799978 0.520199955 0.6954 
0.475799978 0.520199955 0.701499999 
0.475799978 0.526299953 0.6954 
0.481899977 0.520199955 0.6954 
0.481899977 0.520199955 0.701499999 
0.481899977 0.526299953 0.6954 
0.475799978 0.532399952 0.683200002 
0.475799978 0.532399952 0.689300001 
0.481899977 0.532399952 0.683200002 
0.481899977 0.532399952 0.689300001 
0.481899977 0.538499951 0.683200002 
0.420899987 0.605599999 0.280599982 
0.420899987 0.605599999 0.28669998 
0.420899987 0.611699998 0.28669998 
0.426999986 0.605599999 0.274499983 
0.433099985 0.605599999 0.274499983 
0.426999986 0.605599999 0.280599982 
0.426999986 0.605599999 0.28669998 
0.426999986 0.611699998 0.280599982 
0.426999986 0.611699998 0.28669998 
0.433099985 0.605599999 0.280599982 
0.433099985 0.605599999 0.28669998 
0.433099985 0.611699998 0.280599982 
0.433099985 0.611699998 0.28669998 
0.426999986 0.617799997 0.28669998 
0.433099985 0.617799997 0.280599982 
0.433099985 0.617799997 0.28669998 
0.433099985 0.623899996 0.28669998 
0.439199984 0.605599999 0.268399984 
0.439199984 0.605599999 0.274499983 
0.439199984 0.611699998 0.274499983 
0.445299983 0.605599999 0.268399984 
0.445299983 0.605599999 0.274499983 
0.445299983 0.611699998 0.274499983 
0.439199984 0.605599999 0.280599982 
0.439199984 0.605599999 0.28669998 
0.439199984 0.611699998 0.280599982 
0.439199984 0.611699998 0.28669998 
0.445299983 0.605599999 0.280599982 
0.445299983 0.605599999 0.28669998 
0.445299983 0.611699998 0.280599982 
0.445299983 0.611699998 0.28669998 
0.445299983 0.617799997 0.274499983 
0.439199984 0.617799997 0.280599982 
0.439199984 0.617799997 0.28669998 
0.439199984 0.623899996 0.28669998 
0.445299983 0.617799997 0.280599982 
0.445299983 0.617799997 0.28669998 
0.445299983 0.623899996 0.280599982 
0.445299983 0.623899996 0.28669998 
0.439199984 0.629999995 0.28669998 
0.445299983 0.629999995 0.28669998 
0.445299983 0.636099994 0.28669998 
0.451399982 0.605599999 0.268399984 
0.451399982 0.605599999 0.274499983 
0.451399982 0.611699998 0.274499983 
0.457499981 0.605599999 0.268399984 
0.457499981 0.605599999 0.274499983 
0.457499981 0.611699998 0.268399984 
0.457499981 0.611699998 0.274499983 
0.451399982 0.605599999 0.280599982 
0.451399982 0.605599999 0.28669998 
0.451399982 0.611699998 0.280599982 
0.451399982 0.611699998 0.28669998 
0.457499981 0.605599999 0.280599982 
0.457499981 0.605599999 0.28669998 
0.457499981 0.611699998 0.280599982 
0.457499981 0.611699998 0.28669998 
0.451399982 0.617799997 0.274499983 
0.457499981 0.617799997 0.274499983 
0.451399982 0.617799997 0.280599982 
0.451399982 0.617799997 0.28669998 
0.451399982 0.623899996 0.280599982 
0.451399982 0.623899996 0.28669998 
0.457499981 0.617799997 0.280599982 
0.457499981 0.617799997 0.28669998 
0.457499981 0.623899996 0.280599982 
0.457499981 0.623899996 0.28669998 
0.451399982 0.629999995 0.28669998 
0.451399982 0.636099994 0.28669998 
0.457499981 0.629999995 0.280599982 
0.457499981 0.629999995 0.28669998 
0.457499981 0.636099994 0.28669998 
0.457499981 0.642199993 0.28669998 
0.46359998 0.605599999 0.262299985 
0.469699979 0.605599999 0.262299985 
0.46359998 0.605599999 0.268399984 
0.46359998 0.605599999 0.274499983 
0.46359998 0.611699998 0.268399984 
0.46359998 0.611699998 0.274499983 
0.469699979 0.605599999 0.268399984 
0.469699979 0.605599999 0.274499983 
0.469699979 0.611699998 0.268399984 
0.469699979 0.611699998 0.274499983 
0.46359998 0.605599999 0.280599982 
0.46359998 0.605599999 0.28669998 
0.46359998 0.611699998 0.280599982 
0.46359998 0.611699998 0.28669998 
0.469699979 0.605599999 0.280599982 
0.469699979 0.605599999 0.28669998 
0.469699979 0.611699998 0.280599982 
0.469699979 0.611699998 0.28669998 
0.46359998 0.617799997 0.274499983 
0.469699979 0.617799997 0.274499983 
0.46359998 0.617799997 0.280599982 
0.46359998 0.617799997 0.28669998 
0.46359998 0.623899996 0.280599982 
0.46359998 0.623899996 0.28669998 
0.469699979 0.617799997 0.280599982 
0.469699979 0.617799997 0.28669998 
0.469699979 0.623899996 0.280599982 
0.469699979 0.623899996 0.28669998 
0.46359998 0.629999995 0.280599982 
0.46359998 0.629999995 0.28669998 
0.46359998 0.636099994 0.28669998 
0.469699979 0.629999995 0.280599982 
0.469699979 0.629999995 0.28669998 
0.469699979 0.636099994 0.28669998 
0.46359998 0.642199993 0.28669998 
0.469699979 0.642199993 0.28669998 
0.475799978 0.605599999 0.262299985 
0.481899977 0.605599999 0.262299985 
0.475799978 0.605599999 0.268399984 
0.475799978 0.605599999 0.274499983 
0.475799978 0.611699998 0.268399984 
0.475799978 0.611699998 0.274499983 
0.481899977 0.605599999 0.268399984 
0.481899977 0.605599999 0.274499983 
0.481899977 0.611699998 0.268399984 
0.481899977 0.611699998 0.274499983 
0.475799978 0.605599999 0.280599982 
0.475799978 0.605599999 0.28669998 
0.475799978 0.611699998 0.280599982 
0.475799978 0.611699998 0.28669998 
0.481899977 0.605599999 0.280599982 
0.481899977 0.605599999 0.28669998 
0.481899977 0.611699998 0.280599982 
0.481899977 0.611699998 0.28669998 
0.475799978 0.617799997 0.274499983 
0.475799978 0.623899996 0.274499983 
0.481899977 0.617799997 0.274499983 
0.481899977 0.623899996 0.274499983 
0.475799978 0.617799997 0.280599982 
0.475799978 0.617799997 0.28669998 
0.475799978 0.623899996 0.280599982 
0.475799978 0.623899996 0.28669998 
0.481899977 0.617799997 0.280599982 
0.481899977 0.617799997 0.28669998 
0.481899977 0.623899996 0.280599982 
0.481899977 0.623899996 0.28669998 
0.475799978 0.629999995 0.280599982 
0.475799978 0.629999995 0.28669998 
0.475799978 0.636099994 0.28669998 
0.481899977 0.629999995 0.280599982 
0.481899977 0.629999995 0.28669998 
0.481899977 0.636099994 0.28669998 
0.475799978 0.642199993 0.28669998 
0.481899977 0.642199993 0.28669998 
0.481899977 0.648299992 0.28669998 
0.396499991 0.672699988 0.359899998 
0.390399992 0.672699988 0.365999997 
0.390399992 0.672699988 0.372099996 
0.396499991 0.666599989 0.372099996 
0.396499991 0.672699988 0.365999997 
0.396499991 0.672699988 0.372099996 
0.390399992 0.666599989 0.378199995 
0.390399992 0.666599989 0.384299994 
0.390399992 0.672699988 0.378199995 
0.390399992 0.672699988 0.384299994 
0.396499991 0.666599989 0.378199995 
0.396499991 0.666599989 0.384299994 
0.396499991 0.672699988 0.378199995 
0.396499991 0.672699988 0.384299994 
0.390399992 0.678799987 0.359899998 
0.390399992 0.684899986 0.353799999 
0.390399992 0.684899986 0.359899998 
0.396499991 0.678799987 0.353799999 
0.396499991 0.678799987 0.359899998 
0.396499991 0.684899986 0.353799999 
0.396499991 0.684899986 0.359899998 
0.390399992 0.678799987 0.365999997 
0.390399992 0.678799987 0.372099996 
0.390399992 0.684899986 0.365999997 
0.390399992 0.684899986 0.372099996 
0.396499991 0.678799987 0.365999997 
0.396499991 0.678799987 0.372099996 
0.396499991 0.684899986 0.365999997 
0.396499991 0.684899986 0.372099996 
0.390399992 0.678799987 0.378199995 
0.390399992 0.678799987 0.384299994 
0.390399992 0.684899986 0.378199995 
0.390399992 0.684899986 0.384299994 
0.396499991 0.678799987 0.378199995 
0.396499991 0.678799987 0.384299994 
0.396499991 0.684899986 0.378199995 
0.396499991 0.684899986 0.384299994 
0.390399992 0.690999985 0.353799999 
0.390399992 0.690999985 0.359899998 
0.390399992 0.697099984 0.353799999 
0.390399992 0.697099984 0.359899998 
0.396499991 0.690999985 0.353799999 
0.396499991 0.690999985 0.359899998 
0.396499991 0.697099984 0.353799999 
0.396499991 0.697099984 0.359899998 
0.390399992 0.690999985 0.365999997 
0.390399992 0.690999985 0.372099996 
0.390399992 0.697099984 0.365999997 
0.390399992 0.697099984 0.372099996 
0.396499991 0.690999985 0.365999997 
0.396499991 0.690999985 0.372099996 
0.396499991 0.697099984 0.365999997 
0.396499991 0.697099984 0.372099996 
0.390399992 0.690999985 0.378199995 
0.390399992 0.690999985 0.384299994 
0.390399992 0.697099984 0.378199995 
0.390399992 0.697099984 0.384299994 
0.396499991 0.690999985 0.378199995 
0.396499991 0.690999985 0.384299994 
0.396499991 0.697099984 0.378199995 
0.396499991 0.697099984 0.384299994 
0.408699989 0.605599999 0.317200005 
0.408699989 0.605599999 0.323300004 
0.408699989 0.605599999 0.329400003 
0.408699989 0.605599999 0.335500002 
0.408699989 0.605599999 0.341600001 
0.408699989 0.605599999 0.3477 
0.40259999 0.66049999 0.378199995 
0.40259999 0.66049999 0.384299994 
0.408699989 0.66049999 0.378199995 
0.408699989 0.66049999 0.384299994 
0.40259999 0.672699988 0.359899998 
0.408699989 0.672699988 0.359899998 
0.40259999 0.666599989 0.365999997 
0.40259999 0.666599989 0.372099996 
0.40259999 0.672699988 0.365999997 
0.40259999 0.672699988 0.372099996 
0.408699989 0.666599989 0.365999997 
0.408699989 0.666599989 0.372099996 
0.408699989 0.672699988 0.365999997 
0.408699989 0.672699988 0.372099996 
0.40259999 0.666599989 0.378199995 
0.40259999 0.666599989 0.384299994 
0.40259999 0.672699988 0.378199995 
0.40259999 0.672699988 0.384299994 
0.408699989 0.666599989 0.378199995 
0.408699989 0.666599989 0.384299994 
0.408699989 0.672699988 0.378199995 
0.408699989 0.672699988 0.384299994 
0.408699989 0.684899986 0.3477 
0.40259999 0.678799987 0.353799999 
0.40259999 0.678799987 0.359899998 
0.40259999 0.684899986 0.353799999 
0.40259999 0.684899986 0.359899998 
0.408699989 0.678799987 0.353799999 
0.408699989 0.678799987 0.359899998 
0.408699989 0.684899986 0.353799999 
0.408699989 0.684899986 0.359899998 
0.40259999 0.678799987 0.365999997 
0.40259999 0.678799987 0.372099996 
0.40259999 0.684899986 0.365999997 
0.40259999 0.684899986 0.372099996 
0.408699989 0.678799987 0.365999997 
0.408699989 0.678799987 0.372099996 
0.408699989 0.684899986 0.365999997 
0.408699989 0.684899986 0.372099996 
0.40259999 0.678799987 0.378199995 
0.40259999 0.678799987 0.384299994 
0.40259999 0.684899986 0.378199995 
0.40259999 0.684899986 0.384299994 
0.408699989 0.678799987 0.378199995 
0.408699989 0.678799987 0.384299994 
0.408699989 0.684899986 0.378199995 
0.408699989 0.684899986 0.384299994 
0.408699989 0.690999985 0.3477 
0.40259999 0.690999985 0.353799999 
0.40259999 0.690999985 0.359899998 
0.40259999 0.697099984 0.353799999 
0.40259999 0.697099984 0.359899998 
0.408699989 0.690999985 0.353799999 
0.408699989 0.690999985 0.359899998 
0.408699989 0.697099984 0.353799999 
0.408699989 0.697099984 0.359899998 
0.40259999 0.690999985 0.365999997 
0.40259999 0.690999985 0.372099996 
0.40259999 0.697099984 0.365999997 
0.40259999 0.697099984 0.372099996 
0.408699989 0.690999985 0.365999997 
0.408699989 0.690999985 0.372099996 
0.408699989 0.697099984 0.365999997 
0.408699989 0.697099984 0.372099996 
0.40259999 0.690999985 0.378199995 
0.40259999 0.690999985 0.384299994 
0.40259999 0.697099984 0.378199995 
0.40259999 0.697099984 0.384299994 
0.408699989 0.690999985 0.378199995 
0.408699989 0.690999985 0.384299994 
0.408699989 0.697099984 0.378199995 
0.408699989 0.697099984 0.384299994 
0.414799988 0.605599999 0.292800009 
0.414799988 0.605599999 0.298900008 
0.414799988 0.611699998 0.298900008 
0.420899987 0.605599999 0.292800009 
0.420899987 0.605599999 0.298900008 
0.420899987 0.611699998 0.292800009 
0.420899987 0.611699998 0.298900008 
0.414799988 0.605599999 0.305000007 
0.414799988 0.605599999 0.311100006 
0.414799988 0.611699998 0.305000007 
0.414799988 0.611699998 0.311100006 
0.420899987 0.605599999 0.305000007 
0.420899987 0.605599999 0.311100006 
0.420899987 0.611699998 0.305000007 
0.420899987 0.611699998 0.311100006 
0.414799988 0.605599999 0.317200005 
0.414799988 0.605599999 0.323300004 
0.414799988 0.611699998 0.317200005 
0.414799988 0.611699998 0.323300004 
0.420899987 0.605599999 0.317200005 
0.420899987 0.605599999 0.323300004 
0.420899987 0.611699998 0.317200005 
0.420899987 0.611699998 0.323300004 
0.414799988 0.605599999 0.329400003 
0.414799988 0.605599999 0.335500002 
0.414799988 0.611699998 0.329400003 
0.414799988 0.611699998 0.335500002 
0.420899987 0.605599999 0.329400003 
0.420899987 0.605599999 0.335500002 
0.420899987 0.611699998 0.329400003 
0.420899987 0.611699998 0.335500002 
0.414799988 0.605599999 0.341600001 
0.414799988 0.605599999 0.3477 
0.414799988 0.611699998 0.341600001 
0.414799988 0.611699998 0.3477 
0.420899987 0.605599999 0.341600001 
0.420899987 0.605599999 0.3477 
0.420899987 0.611699998 0.341600001 
0.420899987 0.611699998 0.3477 
