ply
format ascii 1.0
element vertex 638
property float x
property float y
property float z
end_header
5.500000119209289551e-01 5.625000000000000000e-01 1.875000000000000000e-01
5.500000119209289551e-01 5.625000000000000000e-01 2.000000029802322388e-01
5.500000119209289551e-01 5.625000000000000000e-01 2.125000059604644775e-01
5.500000119209289551e-01 5.625000000000000000e-01 2.249999940395355225e-01
5.500000119209289551e-01 5.625000000000000000e-01 2.374999970197677612e-01
5.500000119209289551e-01 5.749999880790710449e-01 1.500000059604644775e-01
5.500000119209289551e-01 5.749999880790710449e-01 1.624999940395355225e-01
5.500000119209289551e-01 5.749999880790710449e-01 1.749999970197677612e-01
5.500000119209289551e-01 5.749999880790710449e-01 1.875000000000000000e-01
5.500000119209289551e-01 5.749999880790710449e-01 2.000000029802322388e-01
5.500000119209289551e-01 5.749999880790710449e-01 2.125000059604644775e-01
5.500000119209289551e-01 5.749999880790710449e-01 2.249999940395355225e-01
5.500000119209289551e-01 5.749999880790710449e-01 2.374999970197677612e-01
5.500000119209289551e-01 5.874999761581420898e-01 1.500000059604644775e-01
5.500000119209289551e-01 5.874999761581420898e-01 1.624999940395355225e-01
5.500000119209289551e-01 5.874999761581420898e-01 1.749999970197677612e-01
5.500000119209289551e-01 5.874999761581420898e-01 1.875000000000000000e-01
5.500000119209289551e-01 5.874999761581420898e-01 2.000000029802322388e-01
5.500000119209289551e-01 5.874999761581420898e-01 2.125000059604644775e-01
5.500000119209289551e-01 5.874999761581420898e-01 2.249999940395355225e-01
5.500000119209289551e-01 5.874999761581420898e-01 2.374999970197677612e-01
5.500000119209289551e-01 6.000000238418579102e-01 1.500000059604644775e-01
5.500000119209289551e-01 6.000000238418579102e-01 1.624999940395355225e-01
5.500000119209289551e-01 6.000000238418579102e-01 1.749999970197677612e-01
5.500000119209289551e-01 6.000000238418579102e-01 1.875000000000000000e-01
5.500000119209289551e-01 6.000000238418579102e-01 2.000000029802322388e-01
5.500000119209289551e-01 6.000000238418579102e-01 2.125000059604644775e-01
5.500000119209289551e-01 6.000000238418579102e-01 2.249999940395355225e-01
5.500000119209289551e-01 6.000000238418579102e-01 2.374999970197677612e-01
5.500000119209289551e-01 6.125000119209289551e-01 1.500000059604644775e-01
5.500000119209289551e-01 6.125000119209289551e-01 1.624999940395355225e-01
5.500000119209289551e-01 6.125000119209289551e-01 1.749999970197677612e-01
5.500000119209289551e-01 6.125000119209289551e-01 1.875000000000000000e-01
5.500000119209289551e-01 6.125000119209289551e-01 2.000000029802322388e-01
5.500000119209289551e-01 6.125000119209289551e-01 2.125000059604644775e-01
5.500000119209289551e-01 6.125000119209289551e-01 2.249999940395355225e-01
5.500000119209289551e-01 6.125000119209289551e-01 2.374999970197677612e-01
5.500000119209289551e-01 6.250000000000000000e-01 1.500000059604644775e-01
5.500000119209289551e-01 6.250000000000000000e-01 1.624999940395355225e-01
5.500000119209289551e-01 6.250000000000000000e-01 1.749999970197677612e-01
5.500000119209289551e-01 6.250000000000000000e-01 1.875000000000000000e-01
5.500000119209289551e-01 6.250000000000000000e-01 2.000000029802322388e-01
5.500000119209289551e-01 6.250000000000000000e-01 2.125000059604644775e-01
5.500000119209289551e-01 6.250000000000000000e-01 2.249999940395355225e-01
5.500000119209289551e-01 6.250000000000000000e-01 2.374999970197677612e-01
5.500000119209289551e-01 6.374999880790710449e-01 1.749999970197677612e-01
5.500000119209289551e-01 6.374999880790710449e-01 1.875000000000000000e-01
5.500000119209289551e-01 6.374999880790710449e-01 2.000000029802322388e-01
5.500000119209289551e-01 6.374999880790710449e-01 2.125000059604644775e-01
5.500000119209289551e-01 6.374999880790710449e-01 2.249999940395355225e-01
5.625000000000000000e-01 5.500000119209289551e-01 1.500000059604644775e-01
5.625000000000000000e-01 5.500000119209289551e-01 1.624999940395355225e-01
5.625000000000000000e-01 5.500000119209289551e-01 1.749999970197677612e-01
5.625000000000000000e-01 5.500000119209289551e-01 1.875000000000000000e-01
5.625000000000000000e-01 5.500000119209289551e-01 2.000000029802322388e-01
5.625000000000000000e-01 5.500000119209289551e-01 2.125000059604644775e-01
5.625000000000000000e-01 5.500000119209289551e-01 2.249999940395355225e-01
5.625000000000000000e-01 5.500000119209289551e-01 2.374999970197677612e-01
5.625000000000000000e-01 5.625000000000000000e-01 1.500000059604644775e-01
5.625000000000000000e-01 5.625000000000000000e-01 1.624999940395355225e-01
5.625000000000000000e-01 5.625000000000000000e-01 1.749999970197677612e-01
5.625000000000000000e-01 5.625000000000000000e-01 1.875000000000000000e-01
5.625000000000000000e-01 5.625000000000000000e-01 2.000000029802322388e-01
5.625000000000000000e-01 5.625000000000000000e-01 2.125000059604644775e-01
5.625000000000000000e-01 5.625000000000000000e-01 2.249999940395355225e-01
5.625000000000000000e-01 5.625000000000000000e-01 2.374999970197677612e-01
5.625000000000000000e-01 5.749999880790710449e-01 1.500000059604644775e-01
5.625000000000000000e-01 5.749999880790710449e-01 1.624999940395355225e-01
5.625000000000000000e-01 5.749999880790710449e-01 1.749999970197677612e-01
5.625000000000000000e-01 5.749999880790710449e-01 1.875000000000000000e-01
5.625000000000000000e-01 5.749999880790710449e-01 2.000000029802322388e-01
5.625000000000000000e-01 5.749999880790710449e-01 2.125000059604644775e-01
5.625000000000000000e-01 5.749999880790710449e-01 2.249999940395355225e-01
5.625000000000000000e-01 5.749999880790710449e-01 2.374999970197677612e-01
5.625000000000000000e-01 5.874999761581420898e-01 1.500000059604644775e-01
5.625000000000000000e-01 5.874999761581420898e-01 1.624999940395355225e-01
5.625000000000000000e-01 5.874999761581420898e-01 1.749999970197677612e-01
5.625000000000000000e-01 5.874999761581420898e-01 1.875000000000000000e-01
5.625000000000000000e-01 5.874999761581420898e-01 2.000000029802322388e-01
5.625000000000000000e-01 5.874999761581420898e-01 2.125000059604644775e-01
5.625000000000000000e-01 5.874999761581420898e-01 2.249999940395355225e-01
5.625000000000000000e-01 5.874999761581420898e-01 2.374999970197677612e-01
5.625000000000000000e-01 6.000000238418579102e-01 1.500000059604644775e-01
5.625000000000000000e-01 6.000000238418579102e-01 1.624999940395355225e-01
5.625000000000000000e-01 6.000000238418579102e-01 1.749999970197677612e-01
5.625000000000000000e-01 6.000000238418579102e-01 1.875000000000000000e-01
5.625000000000000000e-01 6.000000238418579102e-01 2.000000029802322388e-01
5.625000000000000000e-01 6.000000238418579102e-01 2.125000059604644775e-01
5.625000000000000000e-01 6.000000238418579102e-01 2.249999940395355225e-01
5.625000000000000000e-01 6.000000238418579102e-01 2.374999970197677612e-01
5.625000000000000000e-01 6.125000119209289551e-01 1.500000059604644775e-01
5.625000000000000000e-01 6.125000119209289551e-01 1.624999940395355225e-01
5.625000000000000000e-01 6.125000119209289551e-01 1.749999970197677612e-01
5.625000000000000000e-01 6.125000119209289551e-01 1.875000000000000000e-01
5.625000000000000000e-01 6.125000119209289551e-01 2.000000029802322388e-01
5.625000000000000000e-01 6.125000119209289551e-01 2.125000059604644775e-01
5.625000000000000000e-01 6.125000119209289551e-01 2.249999940395355225e-01
5.625000000000000000e-01 6.125000119209289551e-01 2.374999970197677612e-01
5.625000000000000000e-01 6.250000000000000000e-01 1.500000059604644775e-01
5.625000000000000000e-01 6.250000000000000000e-01 1.624999940395355225e-01
5.625000000000000000e-01 6.250000000000000000e-01 1.749999970197677612e-01
5.625000000000000000e-01 6.250000000000000000e-01 1.875000000000000000e-01
5.625000000000000000e-01 6.250000000000000000e-01 2.000000029802322388e-01
5.625000000000000000e-01 6.250000000000000000e-01 2.125000059604644775e-01
5.625000000000000000e-01 6.250000000000000000e-01 2.249999940395355225e-01
5.625000000000000000e-01 6.250000000000000000e-01 2.374999970197677612e-01
5.749999880790710449e-01 5.500000119209289551e-01 1.500000059604644775e-01
5.749999880790710449e-01 5.500000119209289551e-01 1.624999940395355225e-01
5.749999880790710449e-01 5.500000119209289551e-01 1.749999970197677612e-01
5.749999880790710449e-01 5.500000119209289551e-01 1.875000000000000000e-01
5.749999880790710449e-01 5.500000119209289551e-01 2.000000029802322388e-01
5.749999880790710449e-01 5.500000119209289551e-01 2.125000059604644775e-01
5.749999880790710449e-01 5.500000119209289551e-01 2.249999940395355225e-01
5.749999880790710449e-01 5.500000119209289551e-01 2.374999970197677612e-01
5.749999880790710449e-01 5.625000000000000000e-01 1.500000059604644775e-01
5.749999880790710449e-01 5.625000000000000000e-01 1.624999940395355225e-01
5.749999880790710449e-01 5.625000000000000000e-01 1.749999970197677612e-01
5.749999880790710449e-01 5.625000000000000000e-01 1.875000000000000000e-01
5.749999880790710449e-01 5.625000000000000000e-01 2.000000029802322388e-01
5.749999880790710449e-01 5.625000000000000000e-01 2.125000059604644775e-01
5.749999880790710449e-01 5.625000000000000000e-01 2.249999940395355225e-01
5.749999880790710449e-01 5.625000000000000000e-01 2.374999970197677612e-01
5.749999880790710449e-01 5.749999880790710449e-01 1.500000059604644775e-01
5.749999880790710449e-01 5.749999880790710449e-01 1.624999940395355225e-01
5.749999880790710449e-01 5.749999880790710449e-01 1.749999970197677612e-01
5.749999880790710449e-01 5.749999880790710449e-01 1.875000000000000000e-01
5.749999880790710449e-01 5.749999880790710449e-01 2.000000029802322388e-01
5.749999880790710449e-01 5.749999880790710449e-01 2.125000059604644775e-01
5.749999880790710449e-01 5.749999880790710449e-01 2.249999940395355225e-01
5.749999880790710449e-01 5.749999880790710449e-01 2.374999970197677612e-01
5.749999880790710449e-01 5.874999761581420898e-01 1.500000059604644775e-01
5.749999880790710449e-01 5.874999761581420898e-01 1.624999940395355225e-01
5.749999880790710449e-01 5.874999761581420898e-01 1.749999970197677612e-01
5.749999880790710449e-01 5.874999761581420898e-01 1.875000000000000000e-01
5.749999880790710449e-01 5.874999761581420898e-01 2.000000029802322388e-01
5.749999880790710449e-01 5.874999761581420898e-01 2.125000059604644775e-01
5.749999880790710449e-01 5.874999761581420898e-01 2.249999940395355225e-01
5.749999880790710449e-01 5.874999761581420898e-01 2.374999970197677612e-01
5.749999880790710449e-01 6.000000238418579102e-01 1.500000059604644775e-01
5.749999880790710449e-01 6.000000238418579102e-01 1.624999940395355225e-01
5.749999880790710449e-01 6.000000238418579102e-01 1.749999970197677612e-01
5.749999880790710449e-01 6.000000238418579102e-01 1.875000000000000000e-01
5.749999880790710449e-01 6.000000238418579102e-01 2.000000029802322388e-01
5.749999880790710449e-01 6.000000238418579102e-01 2.125000059604644775e-01
5.749999880790710449e-01 6.000000238418579102e-01 2.249999940395355225e-01
5.749999880790710449e-01 6.000000238418579102e-01 2.374999970197677612e-01
5.749999880790710449e-01 6.125000119209289551e-01 1.500000059604644775e-01
5.749999880790710449e-01 6.125000119209289551e-01 1.624999940395355225e-01
5.749999880790710449e-01 6.125000119209289551e-01 1.749999970197677612e-01
5.749999880790710449e-01 6.125000119209289551e-01 1.875000000000000000e-01
5.749999880790710449e-01 6.125000119209289551e-01 2.000000029802322388e-01
5.749999880790710449e-01 6.125000119209289551e-01 2.125000059604644775e-01
5.749999880790710449e-01 6.125000119209289551e-01 2.249999940395355225e-01
5.749999880790710449e-01 6.125000119209289551e-01 2.374999970197677612e-01
5.749999880790710449e-01 6.250000000000000000e-01 1.749999970197677612e-01
5.749999880790710449e-01 6.250000000000000000e-01 1.875000000000000000e-01
5.749999880790710449e-01 6.250000000000000000e-01 2.000000029802322388e-01
5.749999880790710449e-01 6.250000000000000000e-01 2.125000059604644775e-01
5.749999880790710449e-01 6.250000000000000000e-01 2.249999940395355225e-01
5.874999761581420898e-01 5.500000119209289551e-01 1.500000059604644775e-01
5.874999761581420898e-01 5.500000119209289551e-01 1.624999940395355225e-01
5.874999761581420898e-01 5.500000119209289551e-01 1.749999970197677612e-01
5.874999761581420898e-01 5.500000119209289551e-01 1.875000000000000000e-01
5.874999761581420898e-01 5.500000119209289551e-01 2.000000029802322388e-01
5.874999761581420898e-01 5.500000119209289551e-01 2.125000059604644775e-01
5.874999761581420898e-01 5.500000119209289551e-01 2.249999940395355225e-01
5.874999761581420898e-01 5.500000119209289551e-01 2.374999970197677612e-01
5.874999761581420898e-01 5.625000000000000000e-01 1.500000059604644775e-01
5.874999761581420898e-01 5.625000000000000000e-01 1.624999940395355225e-01
5.874999761581420898e-01 5.625000000000000000e-01 1.749999970197677612e-01
5.874999761581420898e-01 5.625000000000000000e-01 1.875000000000000000e-01
5.874999761581420898e-01 5.625000000000000000e-01 2.000000029802322388e-01
5.874999761581420898e-01 5.625000000000000000e-01 2.125000059604644775e-01
5.874999761581420898e-01 5.625000000000000000e-01 2.249999940395355225e-01
5.874999761581420898e-01 5.625000000000000000e-01 2.374999970197677612e-01
5.874999761581420898e-01 5.749999880790710449e-01 1.500000059604644775e-01
5.874999761581420898e-01 5.749999880790710449e-01 1.624999940395355225e-01
5.874999761581420898e-01 5.749999880790710449e-01 1.749999970197677612e-01
5.874999761581420898e-01 5.749999880790710449e-01 1.875000000000000000e-01
5.874999761581420898e-01 5.749999880790710449e-01 2.000000029802322388e-01
5.874999761581420898e-01 5.749999880790710449e-01 2.125000059604644775e-01
5.874999761581420898e-01 5.749999880790710449e-01 2.249999940395355225e-01
5.874999761581420898e-01 5.749999880790710449e-01 2.374999970197677612e-01
5.874999761581420898e-01 5.874999761581420898e-01 1.500000059604644775e-01
5.874999761581420898e-01 5.874999761581420898e-01 1.624999940395355225e-01
5.874999761581420898e-01 5.874999761581420898e-01 1.749999970197677612e-01
5.874999761581420898e-01 5.874999761581420898e-01 1.875000000000000000e-01
5.874999761581420898e-01 5.874999761581420898e-01 2.000000029802322388e-01
5.874999761581420898e-01 5.874999761581420898e-01 2.125000059604644775e-01
5.874999761581420898e-01 5.874999761581420898e-01 2.249999940395355225e-01
5.874999761581420898e-01 5.874999761581420898e-01 2.374999970197677612e-01
5.874999761581420898e-01 6.000000238418579102e-01 1.500000059604644775e-01
5.874999761581420898e-01 6.000000238418579102e-01 1.624999940395355225e-01
5.874999761581420898e-01 6.000000238418579102e-01 1.749999970197677612e-01
5.874999761581420898e-01 6.000000238418579102e-01 1.875000000000000000e-01
5.874999761581420898e-01 6.000000238418579102e-01 2.000000029802322388e-01
5.874999761581420898e-01 6.000000238418579102e-01 2.125000059604644775e-01
5.874999761581420898e-01 6.000000238418579102e-01 2.249999940395355225e-01
5.874999761581420898e-01 6.000000238418579102e-01 2.374999970197677612e-01
5.874999761581420898e-01 6.125000119209289551e-01 1.624999940395355225e-01
5.874999761581420898e-01 6.125000119209289551e-01 1.749999970197677612e-01
5.874999761581420898e-01 6.125000119209289551e-01 1.875000000000000000e-01
5.874999761581420898e-01 6.125000119209289551e-01 2.000000029802322388e-01
5.874999761581420898e-01 6.125000119209289551e-01 2.125000059604644775e-01
5.874999761581420898e-01 6.125000119209289551e-01 2.249999940395355225e-01
5.874999761581420898e-01 6.125000119209289551e-01 2.374999970197677612e-01
6.000000238418579102e-01 5.500000119209289551e-01 1.500000059604644775e-01
6.000000238418579102e-01 5.500000119209289551e-01 1.624999940395355225e-01
6.000000238418579102e-01 5.500000119209289551e-01 1.749999970197677612e-01
6.000000238418579102e-01 5.500000119209289551e-01 1.875000000000000000e-01
6.000000238418579102e-01 5.500000119209289551e-01 2.000000029802322388e-01
6.000000238418579102e-01 5.500000119209289551e-01 2.125000059604644775e-01
6.000000238418579102e-01 5.500000119209289551e-01 2.249999940395355225e-01
6.000000238418579102e-01 5.500000119209289551e-01 2.374999970197677612e-01
6.000000238418579102e-01 5.625000000000000000e-01 1.500000059604644775e-01
6.000000238418579102e-01 5.625000000000000000e-01 1.624999940395355225e-01
6.000000238418579102e-01 5.625000000000000000e-01 1.749999970197677612e-01
6.000000238418579102e-01 5.625000000000000000e-01 1.875000000000000000e-01
6.000000238418579102e-01 5.625000000000000000e-01 2.000000029802322388e-01
6.000000238418579102e-01 5.625000000000000000e-01 2.125000059604644775e-01
6.000000238418579102e-01 5.625000000000000000e-01 2.249999940395355225e-01
6.000000238418579102e-01 5.625000000000000000e-01 2.374999970197677612e-01
6.000000238418579102e-01 5.749999880790710449e-01 1.500000059604644775e-01
6.000000238418579102e-01 5.749999880790710449e-01 1.624999940395355225e-01
6.000000238418579102e-01 5.749999880790710449e-01 1.749999970197677612e-01
6.000000238418579102e-01 5.749999880790710449e-01 1.875000000000000000e-01
6.000000238418579102e-01 5.749999880790710449e-01 2.000000029802322388e-01
6.000000238418579102e-01 5.749999880790710449e-01 2.125000059604644775e-01
6.000000238418579102e-01 5.749999880790710449e-01 2.249999940395355225e-01
6.000000238418579102e-01 5.749999880790710449e-01 2.374999970197677612e-01
6.000000238418579102e-01 5.874999761581420898e-01 1.500000059604644775e-01
6.000000238418579102e-01 5.874999761581420898e-01 1.624999940395355225e-01
6.000000238418579102e-01 5.874999761581420898e-01 1.749999970197677612e-01
6.000000238418579102e-01 5.874999761581420898e-01 1.875000000000000000e-01
6.000000238418579102e-01 5.874999761581420898e-01 2.000000029802322388e-01
6.000000238418579102e-01 5.874999761581420898e-01 2.125000059604644775e-01
6.000000238418579102e-01 5.874999761581420898e-01 2.249999940395355225e-01
6.000000238418579102e-01 5.874999761581420898e-01 2.374999970197677612e-01
6.000000238418579102e-01 6.000000238418579102e-01 1.500000059604644775e-01
6.000000238418579102e-01 6.000000238418579102e-01 1.624999940395355225e-01
6.000000238418579102e-01 6.000000238418579102e-01 1.749999970197677612e-01
6.000000238418579102e-01 6.000000238418579102e-01 1.875000000000000000e-01
6.000000238418579102e-01 6.000000238418579102e-01 2.000000029802322388e-01
6.000000238418579102e-01 6.000000238418579102e-01 2.125000059604644775e-01
6.000000238418579102e-01 6.000000238418579102e-01 2.249999940395355225e-01
6.000000238418579102e-01 6.000000238418579102e-01 2.374999970197677612e-01
6.125000119209289551e-01 5.500000119209289551e-01 1.500000059604644775e-01
6.125000119209289551e-01 5.500000119209289551e-01 1.624999940395355225e-01
6.125000119209289551e-01 5.500000119209289551e-01 1.749999970197677612e-01
6.125000119209289551e-01 5.500000119209289551e-01 1.875000000000000000e-01
6.125000119209289551e-01 5.500000119209289551e-01 2.000000029802322388e-01
6.125000119209289551e-01 5.500000119209289551e-01 2.125000059604644775e-01
6.125000119209289551e-01 5.500000119209289551e-01 2.249999940395355225e-01
6.125000119209289551e-01 5.500000119209289551e-01 2.374999970197677612e-01
6.125000119209289551e-01 5.625000000000000000e-01 1.500000059604644775e-01
6.125000119209289551e-01 5.625000000000000000e-01 1.624999940395355225e-01
6.125000119209289551e-01 5.625000000000000000e-01 1.749999970197677612e-01
6.125000119209289551e-01 5.625000000000000000e-01 1.875000000000000000e-01
6.125000119209289551e-01 5.625000000000000000e-01 2.000000029802322388e-01
6.125000119209289551e-01 5.625000000000000000e-01 2.125000059604644775e-01
6.125000119209289551e-01 5.625000000000000000e-01 2.249999940395355225e-01
6.125000119209289551e-01 5.625000000000000000e-01 2.374999970197677612e-01
6.125000119209289551e-01 5.749999880790710449e-01 1.500000059604644775e-01
6.125000119209289551e-01 5.749999880790710449e-01 1.624999940395355225e-01
6.125000119209289551e-01 5.749999880790710449e-01 1.749999970197677612e-01
6.125000119209289551e-01 5.749999880790710449e-01 1.875000000000000000e-01
6.125000119209289551e-01 5.749999880790710449e-01 2.000000029802322388e-01
6.125000119209289551e-01 5.749999880790710449e-01 2.125000059604644775e-01
6.125000119209289551e-01 5.749999880790710449e-01 2.249999940395355225e-01
6.125000119209289551e-01 5.749999880790710449e-01 2.374999970197677612e-01
6.125000119209289551e-01 5.874999761581420898e-01 1.624999940395355225e-01
6.125000119209289551e-01 5.874999761581420898e-01 1.749999970197677612e-01
6.125000119209289551e-01 5.874999761581420898e-01 1.875000000000000000e-01
6.125000119209289551e-01 5.874999761581420898e-01 2.000000029802322388e-01
6.125000119209289551e-01 5.874999761581420898e-01 2.125000059604644775e-01
6.125000119209289551e-01 5.874999761581420898e-01 2.249999940395355225e-01
6.125000119209289551e-01 5.874999761581420898e-01 2.374999970197677612e-01
6.250000000000000000e-01 5.500000119209289551e-01 1.500000059604644775e-01
6.250000000000000000e-01 5.500000119209289551e-01 1.624999940395355225e-01
6.250000000000000000e-01 5.500000119209289551e-01 1.749999970197677612e-01
6.250000000000000000e-01 5.500000119209289551e-01 1.875000000000000000e-01
6.250000000000000000e-01 5.500000119209289551e-01 2.000000029802322388e-01
6.250000000000000000e-01 5.500000119209289551e-01 2.125000059604644775e-01
6.250000000000000000e-01 5.500000119209289551e-01 2.249999940395355225e-01
6.250000000000000000e-01 5.500000119209289551e-01 2.374999970197677612e-01
6.250000000000000000e-01 5.625000000000000000e-01 1.500000059604644775e-01
6.250000000000000000e-01 5.625000000000000000e-01 1.624999940395355225e-01
6.250000000000000000e-01 5.625000000000000000e-01 1.749999970197677612e-01
6.250000000000000000e-01 5.625000000000000000e-01 1.875000000000000000e-01
6.250000000000000000e-01 5.625000000000000000e-01 2.000000029802322388e-01
6.250000000000000000e-01 5.625000000000000000e-01 2.125000059604644775e-01
6.250000000000000000e-01 5.625000000000000000e-01 2.249999940395355225e-01
6.250000000000000000e-01 5.625000000000000000e-01 2.374999970197677612e-01
6.250000000000000000e-01 5.749999880790710449e-01 1.749999970197677612e-01
6.250000000000000000e-01 5.749999880790710449e-01 1.875000000000000000e-01
6.250000000000000000e-01 5.749999880790710449e-01 2.000000029802322388e-01
6.250000000000000000e-01 5.749999880790710449e-01 2.125000059604644775e-01
6.250000000000000000e-01 5.749999880790710449e-01 2.249999940395355225e-01
6.374999880790710449e-01 5.500000119209289551e-01 1.749999970197677612e-01
6.374999880790710449e-01 5.500000119209289551e-01 1.875000000000000000e-01
6.374999880790710449e-01 5.500000119209289551e-01 2.000000029802322388e-01
6.374999880790710449e-01 5.500000119209289551e-01 2.125000059604644775e-01
6.374999880790710449e-01 5.500000119209289551e-01 2.249999940395355225e-01
5.000000000000000000e-01 6.499999761581420898e-01 2.000000029802322388e-01
3.750000000000000000e-01 4.375000000000000000e-01 2.500000000000000000e-01
3.874999880790710449e-01 4.250000119209289551e-01 2.500000000000000000e-01
3.874999880790710449e-01 4.250000119209289551e-01 2.624999880790710449e-01
3.874999880790710449e-01 4.375000000000000000e-01 2.500000000000000000e-01
3.874999880790710449e-01 4.375000000000000000e-01 2.624999880790710449e-01
3.874999880790710449e-01 4.375000000000000000e-01 2.750000059604644775e-01
4.000000059604644775e-01 4.000000059604644775e-01 2.500000000000000000e-01
4.000000059604644775e-01 4.124999940395355225e-01 2.500000000000000000e-01
4.000000059604644775e-01 4.124999940395355225e-01 2.624999880790710449e-01
4.000000059604644775e-01 4.250000119209289551e-01 2.500000000000000000e-01
4.000000059604644775e-01 4.250000119209289551e-01 2.624999880790710449e-01
4.000000059604644775e-01 4.250000119209289551e-01 2.750000059604644775e-01
4.000000059604644775e-01 4.375000000000000000e-01 2.500000000000000000e-01
4.000000059604644775e-01 4.375000000000000000e-01 2.624999880790710449e-01
4.000000059604644775e-01 4.375000000000000000e-01 2.750000059604644775e-01
4.000000059604644775e-01 4.375000000000000000e-01 2.874999940395355225e-01
4.124999940395355225e-01 4.000000059604644775e-01 2.500000000000000000e-01
4.124999940395355225e-01 4.000000059604644775e-01 2.624999880790710449e-01
4.124999940395355225e-01 4.124999940395355225e-01 2.500000000000000000e-01
4.124999940395355225e-01 4.124999940395355225e-01 2.624999880790710449e-01
4.124999940395355225e-01 4.124999940395355225e-01 2.750000059604644775e-01
4.124999940395355225e-01 4.250000119209289551e-01 2.500000000000000000e-01
4.124999940395355225e-01 4.250000119209289551e-01 2.624999880790710449e-01
4.124999940395355225e-01 4.250000119209289551e-01 2.750000059604644775e-01
4.124999940395355225e-01 4.250000119209289551e-01 2.874999940395355225e-01
4.124999940395355225e-01 4.375000000000000000e-01 2.500000000000000000e-01
4.124999940395355225e-01 4.375000000000000000e-01 2.624999880790710449e-01
4.124999940395355225e-01 4.375000000000000000e-01 2.750000059604644775e-01
4.124999940395355225e-01 4.375000000000000000e-01 2.874999940395355225e-01
4.124999940395355225e-01 4.375000000000000000e-01 3.000000119209289551e-01
4.250000119209289551e-01 3.874999880790710449e-01 2.500000000000000000e-01
4.250000119209289551e-01 3.874999880790710449e-01 2.624999880790710449e-01
4.250000119209289551e-01 4.000000059604644775e-01 2.500000000000000000e-01
4.250000119209289551e-01 4.000000059604644775e-01 2.624999880790710449e-01
4.250000119209289551e-01 4.000000059604644775e-01 2.750000059604644775e-01
4.250000119209289551e-01 4.124999940395355225e-01 2.500000000000000000e-01
4.250000119209289551e-01 4.124999940395355225e-01 2.624999880790710449e-01
4.250000119209289551e-01 4.124999940395355225e-01 2.750000059604644775e-01
4.250000119209289551e-01 4.124999940395355225e-01 2.874999940395355225e-01
4.250000119209289551e-01 4.250000119209289551e-01 2.500000000000000000e-01
4.250000119209289551e-01 4.250000119209289551e-01 2.624999880790710449e-01
4.250000119209289551e-01 4.250000119209289551e-01 2.750000059604644775e-01
4.250000119209289551e-01 4.250000119209289551e-01 2.874999940395355225e-01
4.250000119209289551e-01 4.250000119209289551e-01 3.000000119209289551e-01
4.250000119209289551e-01 4.375000000000000000e-01 2.500000000000000000e-01
4.250000119209289551e-01 4.375000000000000000e-01 2.624999880790710449e-01
4.250000119209289551e-01 4.375000000000000000e-01 2.750000059604644775e-01
4.250000119209289551e-01 4.375000000000000000e-01 2.874999940395355225e-01
4.250000119209289551e-01 4.375000000000000000e-01 3.000000119209289551e-01
4.250000119209289551e-01 4.375000000000000000e-01 3.125000000000000000e-01
4.375000000000000000e-01 3.750000000000000000e-01 2.500000000000000000e-01
4.375000000000000000e-01 3.874999880790710449e-01 2.500000000000000000e-01
4.375000000000000000e-01 3.874999880790710449e-01 2.624999880790710449e-01
4.375000000000000000e-01 3.874999880790710449e-01 2.750000059604644775e-01
4.375000000000000000e-01 4.000000059604644775e-01 2.500000000000000000e-01
4.375000000000000000e-01 4.000000059604644775e-01 2.624999880790710449e-01
4.375000000000000000e-01 4.000000059604644775e-01 2.750000059604644775e-01
4.375000000000000000e-01 4.000000059604644775e-01 2.874999940395355225e-01
4.375000000000000000e-01 4.124999940395355225e-01 2.500000000000000000e-01
4.375000000000000000e-01 4.124999940395355225e-01 2.624999880790710449e-01
4.375000000000000000e-01 4.124999940395355225e-01 2.750000059604644775e-01
4.375000000000000000e-01 4.124999940395355225e-01 2.874999940395355225e-01
4.375000000000000000e-01 4.124999940395355225e-01 3.000000119209289551e-01
4.375000000000000000e-01 4.250000119209289551e-01 2.500000000000000000e-01
4.375000000000000000e-01 4.250000119209289551e-01 2.624999880790710449e-01
4.375000000000000000e-01 4.250000119209289551e-01 2.750000059604644775e-01
4.375000000000000000e-01 4.250000119209289551e-01 2.874999940395355225e-01
4.375000000000000000e-01 4.250000119209289551e-01 3.000000119209289551e-01
4.375000000000000000e-01 4.250000119209289551e-01 3.125000000000000000e-01
4.375000000000000000e-01 4.375000000000000000e-01 2.500000000000000000e-01
4.375000000000000000e-01 4.375000000000000000e-01 2.624999880790710449e-01
4.375000000000000000e-01 4.375000000000000000e-01 2.750000059604644775e-01
4.375000000000000000e-01 4.375000000000000000e-01 2.874999940395355225e-01
4.375000000000000000e-01 4.375000000000000000e-01 3.000000119209289551e-01
4.375000000000000000e-01 4.375000000000000000e-01 3.125000000000000000e-01
4.499999880790710449e-01 3.750000000000000000e-01 2.500000000000000000e-01
4.499999880790710449e-01 3.750000000000000000e-01 2.624999880790710449e-01
4.499999880790710449e-01 3.874999880790710449e-01 2.500000000000000000e-01
4.499999880790710449e-01 3.874999880790710449e-01 2.624999880790710449e-01
4.499999880790710449e-01 3.874999880790710449e-01 2.750000059604644775e-01
4.499999880790710449e-01 4.000000059604644775e-01 2.500000000000000000e-01
4.499999880790710449e-01 4.000000059604644775e-01 2.624999880790710449e-01
4.499999880790710449e-01 4.000000059604644775e-01 2.750000059604644775e-01
4.499999880790710449e-01 4.000000059604644775e-01 2.874999940395355225e-01
4.499999880790710449e-01 4.000000059604644775e-01 3.000000119209289551e-01
4.499999880790710449e-01 4.124999940395355225e-01 2.500000000000000000e-01
4.499999880790710449e-01 4.124999940395355225e-01 2.624999880790710449e-01
4.499999880790710449e-01 4.124999940395355225e-01 2.750000059604644775e-01
4.499999880790710449e-01 4.124999940395355225e-01 2.874999940395355225e-01
4.499999880790710449e-01 4.124999940395355225e-01 3.000000119209289551e-01
4.499999880790710449e-01 4.250000119209289551e-01 2.500000000000000000e-01
4.499999880790710449e-01 4.250000119209289551e-01 2.624999880790710449e-01
4.499999880790710449e-01 4.250000119209289551e-01 2.750000059604644775e-01
4.499999880790710449e-01 4.250000119209289551e-01 2.874999940395355225e-01
4.499999880790710449e-01 4.250000119209289551e-01 3.000000119209289551e-01
4.499999880790710449e-01 4.250000119209289551e-01 3.125000000000000000e-01
4.499999880790710449e-01 4.375000000000000000e-01 2.500000000000000000e-01
4.499999880790710449e-01 4.375000000000000000e-01 2.624999880790710449e-01
4.499999880790710449e-01 4.375000000000000000e-01 2.750000059604644775e-01
4.499999880790710449e-01 4.375000000000000000e-01 2.874999940395355225e-01
4.499999880790710449e-01 4.375000000000000000e-01 3.000000119209289551e-01
4.499999880790710449e-01 4.375000000000000000e-01 3.125000000000000000e-01
4.499999880790710449e-01 4.375000000000000000e-01 3.249999880790710449e-01
4.625000059604644775e-01 3.750000000000000000e-01 2.500000000000000000e-01
4.625000059604644775e-01 3.750000000000000000e-01 2.624999880790710449e-01
4.625000059604644775e-01 3.874999880790710449e-01 2.500000000000000000e-01
4.625000059604644775e-01 3.874999880790710449e-01 2.624999880790710449e-01
4.625000059604644775e-01 3.874999880790710449e-01 2.750000059604644775e-01
4.625000059604644775e-01 3.874999880790710449e-01 2.874999940395355225e-01
4.625000059604644775e-01 4.000000059604644775e-01 2.500000000000000000e-01
4.625000059604644775e-01 4.000000059604644775e-01 2.624999880790710449e-01
4.625000059604644775e-01 4.000000059604644775e-01 2.750000059604644775e-01
4.625000059604644775e-01 4.000000059604644775e-01 2.874999940395355225e-01
4.625000059604644775e-01 4.000000059604644775e-01 3.000000119209289551e-01
4.625000059604644775e-01 4.124999940395355225e-01 2.500000000000000000e-01
4.625000059604644775e-01 4.124999940395355225e-01 2.624999880790710449e-01
4.625000059604644775e-01 4.124999940395355225e-01 2.750000059604644775e-01
4.625000059604644775e-01 4.124999940395355225e-01 2.874999940395355225e-01
4.625000059604644775e-01 4.124999940395355225e-01 3.000000119209289551e-01
4.625000059604644775e-01 4.124999940395355225e-01 3.125000000000000000e-01
4.625000059604644775e-01 4.250000119209289551e-01 2.500000000000000000e-01
4.625000059604644775e-01 4.250000119209289551e-01 2.624999880790710449e-01
4.625000059604644775e-01 4.250000119209289551e-01 2.750000059604644775e-01
4.625000059604644775e-01 4.250000119209289551e-01 2.874999940395355225e-01
4.625000059604644775e-01 4.250000119209289551e-01 3.000000119209289551e-01
4.625000059604644775e-01 4.250000119209289551e-01 3.125000000000000000e-01
4.625000059604644775e-01 4.375000000000000000e-01 2.500000000000000000e-01
4.625000059604644775e-01 4.375000000000000000e-01 2.624999880790710449e-01
4.625000059604644775e-01 4.375000000000000000e-01 2.750000059604644775e-01
4.625000059604644775e-01 4.375000000000000000e-01 2.874999940395355225e-01
4.625000059604644775e-01 4.375000000000000000e-01 3.000000119209289551e-01
4.625000059604644775e-01 4.375000000000000000e-01 3.125000000000000000e-01
4.625000059604644775e-01 4.375000000000000000e-01 3.249999880790710449e-01
4.749999940395355225e-01 3.625000119209289551e-01 2.500000000000000000e-01
4.749999940395355225e-01 3.750000000000000000e-01 2.500000000000000000e-01
4.749999940395355225e-01 3.750000000000000000e-01 2.624999880790710449e-01
4.749999940395355225e-01 3.750000000000000000e-01 2.750000059604644775e-01
4.749999940395355225e-01 3.874999880790710449e-01 2.500000000000000000e-01
4.749999940395355225e-01 3.874999880790710449e-01 2.624999880790710449e-01
4.749999940395355225e-01 3.874999880790710449e-01 2.750000059604644775e-01
4.749999940395355225e-01 3.874999880790710449e-01 2.874999940395355225e-01
4.749999940395355225e-01 4.000000059604644775e-01 2.500000000000000000e-01
4.749999940395355225e-01 4.000000059604644775e-01 2.624999880790710449e-01
4.749999940395355225e-01 4.000000059604644775e-01 2.750000059604644775e-01
4.749999940395355225e-01 4.000000059604644775e-01 2.874999940395355225e-01
4.749999940395355225e-01 4.000000059604644775e-01 3.000000119209289551e-01
4.749999940395355225e-01 4.124999940395355225e-01 2.500000000000000000e-01
4.749999940395355225e-01 4.124999940395355225e-01 2.624999880790710449e-01
4.749999940395355225e-01 4.124999940395355225e-01 2.750000059604644775e-01
4.749999940395355225e-01 4.124999940395355225e-01 2.874999940395355225e-01
4.749999940395355225e-01 4.124999940395355225e-01 3.000000119209289551e-01
4.749999940395355225e-01 4.124999940395355225e-01 3.125000000000000000e-01
4.749999940395355225e-01 4.250000119209289551e-01 2.500000000000000000e-01
4.749999940395355225e-01 4.250000119209289551e-01 2.624999880790710449e-01
4.749999940395355225e-01 4.250000119209289551e-01 2.750000059604644775e-01
4.749999940395355225e-01 4.250000119209289551e-01 2.874999940395355225e-01
4.749999940395355225e-01 4.250000119209289551e-01 3.000000119209289551e-01
4.749999940395355225e-01 4.250000119209289551e-01 3.125000000000000000e-01
4.749999940395355225e-01 4.250000119209289551e-01 3.249999880790710449e-01
4.749999940395355225e-01 4.375000000000000000e-01 2.500000000000000000e-01
4.749999940395355225e-01 4.375000000000000000e-01 2.624999880790710449e-01
4.749999940395355225e-01 4.375000000000000000e-01 2.750000059604644775e-01
4.749999940395355225e-01 4.375000000000000000e-01 2.874999940395355225e-01
4.749999940395355225e-01 4.375000000000000000e-01 3.000000119209289551e-01
4.749999940395355225e-01 4.375000000000000000e-01 3.125000000000000000e-01
4.749999940395355225e-01 4.375000000000000000e-01 3.249999880790710449e-01
4.875000119209289551e-01 3.625000119209289551e-01 2.500000000000000000e-01
4.875000119209289551e-01 3.750000000000000000e-01 2.500000000000000000e-01
4.875000119209289551e-01 3.750000000000000000e-01 2.624999880790710449e-01
4.875000119209289551e-01 3.750000000000000000e-01 2.750000059604644775e-01
4.875000119209289551e-01 3.874999880790710449e-01 2.500000000000000000e-01
4.875000119209289551e-01 3.874999880790710449e-01 2.624999880790710449e-01
4.875000119209289551e-01 3.874999880790710449e-01 2.750000059604644775e-01
4.875000119209289551e-01 3.874999880790710449e-01 2.874999940395355225e-01
4.875000119209289551e-01 4.000000059604644775e-01 2.500000000000000000e-01
4.875000119209289551e-01 4.000000059604644775e-01 2.624999880790710449e-01
4.875000119209289551e-01 4.000000059604644775e-01 2.750000059604644775e-01
4.875000119209289551e-01 4.000000059604644775e-01 2.874999940395355225e-01
4.875000119209289551e-01 4.000000059604644775e-01 3.000000119209289551e-01
4.875000119209289551e-01 4.124999940395355225e-01 2.500000000000000000e-01
4.875000119209289551e-01 4.124999940395355225e-01 2.624999880790710449e-01
4.875000119209289551e-01 4.124999940395355225e-01 2.750000059604644775e-01
4.875000119209289551e-01 4.124999940395355225e-01 2.874999940395355225e-01
4.875000119209289551e-01 4.124999940395355225e-01 3.000000119209289551e-01
4.875000119209289551e-01 4.124999940395355225e-01 3.125000000000000000e-01
4.875000119209289551e-01 4.250000119209289551e-01 2.500000000000000000e-01
4.875000119209289551e-01 4.250000119209289551e-01 2.624999880790710449e-01
4.875000119209289551e-01 4.250000119209289551e-01 2.750000059604644775e-01
4.875000119209289551e-01 4.250000119209289551e-01 2.874999940395355225e-01
4.875000119209289551e-01 4.250000119209289551e-01 3.000000119209289551e-01
4.875000119209289551e-01 4.250000119209289551e-01 3.125000000000000000e-01
4.875000119209289551e-01 4.250000119209289551e-01 3.249999880790710449e-01
4.875000119209289551e-01 4.375000000000000000e-01 2.500000000000000000e-01
4.875000119209289551e-01 4.375000000000000000e-01 2.624999880790710449e-01
4.875000119209289551e-01 4.375000000000000000e-01 2.750000059604644775e-01
4.875000119209289551e-01 4.375000000000000000e-01 2.874999940395355225e-01
4.875000119209289551e-01 4.375000000000000000e-01 3.000000119209289551e-01
4.875000119209289551e-01 4.375000000000000000e-01 3.125000000000000000e-01
4.875000119209289551e-01 4.375000000000000000e-01 3.249999880790710449e-01
5.000000000000000000e-01 3.625000119209289551e-01 2.500000000000000000e-01
5.000000000000000000e-01 3.750000000000000000e-01 2.500000000000000000e-01
5.000000000000000000e-01 3.750000000000000000e-01 2.624999880790710449e-01
5.000000000000000000e-01 3.750000000000000000e-01 2.750000059604644775e-01
5.000000000000000000e-01 3.874999880790710449e-01 2.500000000000000000e-01
5.000000000000000000e-01 3.874999880790710449e-01 2.624999880790710449e-01
5.000000000000000000e-01 3.874999880790710449e-01 2.750000059604644775e-01
5.000000000000000000e-01 3.874999880790710449e-01 2.874999940395355225e-01
5.000000000000000000e-01 4.000000059604644775e-01 2.500000000000000000e-01
5.000000000000000000e-01 4.000000059604644775e-01 2.624999880790710449e-01
5.000000000000000000e-01 4.000000059604644775e-01 2.750000059604644775e-01
5.000000000000000000e-01 4.000000059604644775e-01 2.874999940395355225e-01
5.000000000000000000e-01 4.000000059604644775e-01 3.000000119209289551e-01
5.000000000000000000e-01 4.124999940395355225e-01 2.500000000000000000e-01
5.000000000000000000e-01 4.124999940395355225e-01 2.624999880790710449e-01
5.000000000000000000e-01 4.124999940395355225e-01 2.750000059604644775e-01
5.000000000000000000e-01 4.124999940395355225e-01 2.874999940395355225e-01
5.000000000000000000e-01 4.124999940395355225e-01 3.000000119209289551e-01
5.000000000000000000e-01 4.124999940395355225e-01 3.125000000000000000e-01
5.000000000000000000e-01 4.250000119209289551e-01 2.500000000000000000e-01
5.000000000000000000e-01 4.250000119209289551e-01 2.624999880790710449e-01
5.000000000000000000e-01 4.250000119209289551e-01 2.750000059604644775e-01
5.000000000000000000e-01 4.250000119209289551e-01 2.874999940395355225e-01
5.000000000000000000e-01 4.250000119209289551e-01 3.000000119209289551e-01
5.000000000000000000e-01 4.250000119209289551e-01 3.125000000000000000e-01
5.000000000000000000e-01 4.250000119209289551e-01 3.249999880790710449e-01
5.000000000000000000e-01 4.375000000000000000e-01 2.500000000000000000e-01
5.000000000000000000e-01 4.375000000000000000e-01 2.624999880790710449e-01
5.000000000000000000e-01 4.375000000000000000e-01 2.750000059604644775e-01
5.000000000000000000e-01 4.375000000000000000e-01 2.874999940395355225e-01
5.000000000000000000e-01 4.375000000000000000e-01 3.000000119209289551e-01
5.000000000000000000e-01 4.375000000000000000e-01 3.125000000000000000e-01
5.000000000000000000e-01 4.375000000000000000e-01 3.249999880790710449e-01
5.124999880790710449e-01 3.625000119209289551e-01 2.500000000000000000e-01
5.124999880790710449e-01 3.750000000000000000e-01 2.500000000000000000e-01
5.124999880790710449e-01 3.750000000000000000e-01 2.624999880790710449e-01
5.124999880790710449e-01 3.750000000000000000e-01 2.750000059604644775e-01
5.124999880790710449e-01 3.874999880790710449e-01 2.500000000000000000e-01
5.124999880790710449e-01 3.874999880790710449e-01 2.624999880790710449e-01
5.124999880790710449e-01 3.874999880790710449e-01 2.750000059604644775e-01
5.124999880790710449e-01 3.874999880790710449e-01 2.874999940395355225e-01
5.124999880790710449e-01 4.000000059604644775e-01 2.500000000000000000e-01
5.124999880790710449e-01 4.000000059604644775e-01 2.624999880790710449e-01
5.124999880790710449e-01 4.000000059604644775e-01 2.750000059604644775e-01
5.124999880790710449e-01 4.000000059604644775e-01 2.874999940395355225e-01
5.124999880790710449e-01 4.000000059604644775e-01 3.000000119209289551e-01
5.124999880790710449e-01 4.124999940395355225e-01 2.500000000000000000e-01
5.124999880790710449e-01 4.124999940395355225e-01 2.624999880790710449e-01
5.124999880790710449e-01 4.124999940395355225e-01 2.750000059604644775e-01
5.124999880790710449e-01 4.124999940395355225e-01 2.874999940395355225e-01
5.124999880790710449e-01 4.124999940395355225e-01 3.000000119209289551e-01
5.124999880790710449e-01 4.124999940395355225e-01 3.125000000000000000e-01
5.124999880790710449e-01 4.250000119209289551e-01 2.500000000000000000e-01
5.124999880790710449e-01 4.250000119209289551e-01 2.624999880790710449e-01
5.124999880790710449e-01 4.250000119209289551e-01 2.750000059604644775e-01
5.124999880790710449e-01 4.250000119209289551e-01 2.874999940395355225e-01
5.124999880790710449e-01 4.250000119209289551e-01 3.000000119209289551e-01
5.124999880790710449e-01 4.250000119209289551e-01 3.125000000000000000e-01
5.124999880790710449e-01 4.250000119209289551e-01 3.249999880790710449e-01
5.124999880790710449e-01 4.375000000000000000e-01 2.500000000000000000e-01
5.124999880790710449e-01 4.375000000000000000e-01 2.624999880790710449e-01
5.124999880790710449e-01 4.375000000000000000e-01 2.750000059604644775e-01
5.124999880790710449e-01 4.375000000000000000e-01 2.874999940395355225e-01
5.124999880790710449e-01 4.375000000000000000e-01 3.000000119209289551e-01
5.124999880790710449e-01 4.375000000000000000e-01 3.125000000000000000e-01
5.124999880790710449e-01 4.375000000000000000e-01 3.249999880790710449e-01
5.249999761581420898e-01 3.625000119209289551e-01 2.500000000000000000e-01
5.249999761581420898e-01 3.750000000000000000e-01 2.500000000000000000e-01
5.249999761581420898e-01 3.750000000000000000e-01 2.624999880790710449e-01
5.249999761581420898e-01 3.750000000000000000e-01 2.750000059604644775e-01
5.249999761581420898e-01 3.874999880790710449e-01 2.500000000000000000e-01
5.249999761581420898e-01 3.874999880790710449e-01 2.624999880790710449e-01
5.249999761581420898e-01 3.874999880790710449e-01 2.750000059604644775e-01
5.249999761581420898e-01 3.874999880790710449e-01 2.874999940395355225e-01
5.249999761581420898e-01 4.000000059604644775e-01 2.500000000000000000e-01
5.249999761581420898e-01 4.000000059604644775e-01 2.624999880790710449e-01
5.249999761581420898e-01 4.000000059604644775e-01 2.750000059604644775e-01
5.249999761581420898e-01 4.000000059604644775e-01 2.874999940395355225e-01
5.249999761581420898e-01 4.000000059604644775e-01 3.000000119209289551e-01
5.249999761581420898e-01 4.124999940395355225e-01 2.500000000000000000e-01
5.249999761581420898e-01 4.124999940395355225e-01 2.624999880790710449e-01
5.249999761581420898e-01 4.124999940395355225e-01 2.750000059604644775e-01
5.249999761581420898e-01 4.124999940395355225e-01 2.874999940395355225e-01
5.249999761581420898e-01 4.124999940395355225e-01 3.000000119209289551e-01
5.249999761581420898e-01 4.124999940395355225e-01 3.125000000000000000e-01
5.249999761581420898e-01 4.250000119209289551e-01 2.500000000000000000e-01
5.249999761581420898e-01 4.250000119209289551e-01 2.624999880790710449e-01
5.249999761581420898e-01 4.250000119209289551e-01 2.750000059604644775e-01
5.249999761581420898e-01 4.250000119209289551e-01 2.874999940395355225e-01
5.249999761581420898e-01 4.250000119209289551e-01 3.000000119209289551e-01
5.249999761581420898e-01 4.250000119209289551e-01 3.125000000000000000e-01
5.249999761581420898e-01 4.250000119209289551e-01 3.249999880790710449e-01
5.249999761581420898e-01 4.375000000000000000e-01 2.500000000000000000e-01
5.249999761581420898e-01 4.375000000000000000e-01 2.624999880790710449e-01
5.249999761581420898e-01 4.375000000000000000e-01 2.750000059604644775e-01
5.249999761581420898e-01 4.375000000000000000e-01 2.874999940395355225e-01
5.249999761581420898e-01 4.375000000000000000e-01 3.000000119209289551e-01
5.249999761581420898e-01 4.375000000000000000e-01 3.125000000000000000e-01
5.249999761581420898e-01 4.375000000000000000e-01 3.249999880790710449e-01
5.375000238418579102e-01 3.750000000000000000e-01 2.500000000000000000e-01
5.375000238418579102e-01 3.750000000000000000e-01 2.624999880790710449e-01
5.375000238418579102e-01 3.874999880790710449e-01 2.500000000000000000e-01
5.375000238418579102e-01 3.874999880790710449e-01 2.624999880790710449e-01
5.375000238418579102e-01 3.874999880790710449e-01 2.750000059604644775e-01
5.375000238418579102e-01 3.874999880790710449e-01 2.874999940395355225e-01
5.375000238418579102e-01 4.000000059604644775e-01 2.500000000000000000e-01
5.375000238418579102e-01 4.000000059604644775e-01 2.624999880790710449e-01
5.375000238418579102e-01 4.000000059604644775e-01 2.750000059604644775e-01
5.375000238418579102e-01 4.000000059604644775e-01 2.874999940395355225e-01
5.375000238418579102e-01 4.000000059604644775e-01 3.000000119209289551e-01
5.375000238418579102e-01 4.124999940395355225e-01 2.500000000000000000e-01
5.375000238418579102e-01 4.124999940395355225e-01 2.624999880790710449e-01
5.375000238418579102e-01 4.124999940395355225e-01 2.750000059604644775e-01
5.375000238418579102e-01 4.124999940395355225e-01 2.874999940395355225e-01
5.375000238418579102e-01 4.124999940395355225e-01 3.000000119209289551e-01
5.375000238418579102e-01 4.124999940395355225e-01 3.125000000000000000e-01
5.375000238418579102e-01 4.250000119209289551e-01 2.500000000000000000e-01
5.375000238418579102e-01 4.250000119209289551e-01 2.624999880790710449e-01
5.375000238418579102e-01 4.250000119209289551e-01 2.750000059604644775e-01
5.375000238418579102e-01 4.250000119209289551e-01 2.874999940395355225e-01
5.375000238418579102e-01 4.250000119209289551e-01 3.000000119209289551e-01
5.375000238418579102e-01 4.250000119209289551e-01 3.125000000000000000e-01
5.375000238418579102e-01 4.375000000000000000e-01 2.500000000000000000e-01
5.375000238418579102e-01 4.375000000000000000e-01 2.624999880790710449e-01
5.375000238418579102e-01 4.375000000000000000e-01 2.750000059604644775e-01
5.375000238418579102e-01 4.375000000000000000e-01 2.874999940395355225e-01
5.375000238418579102e-01 4.375000000000000000e-01 3.000000119209289551e-01
5.375000238418579102e-01 4.375000000000000000e-01 3.125000000000000000e-01
5.375000238418579102e-01 4.375000000000000000e-01 3.249999880790710449e-01
5.500000119209289551e-01 3.750000000000000000e-01 2.500000000000000000e-01
5.500000119209289551e-01 3.750000000000000000e-01 2.624999880790710449e-01
5.500000119209289551e-01 3.874999880790710449e-01 2.500000000000000000e-01
5.500000119209289551e-01 3.874999880790710449e-01 2.624999880790710449e-01
5.500000119209289551e-01 3.874999880790710449e-01 2.750000059604644775e-01
5.500000119209289551e-01 4.000000059604644775e-01 2.500000000000000000e-01
